ply
format ascii 1.0
element vertex 1315
property float x
property float y
property float z
end_header
691.096802 -1883.334106 -410.740356
691.179810 -1891.244141 -410.740356
706.281799 -1862.784180 -410.740356
707.152771 -1878.244141 -410.740356
-700.273193 -1824.504150 -410.740356
-721.779175 -1837.184082 -410.740356
-716.087219 -1839.404175 -410.740356
-788.567200 -1728.524170 -410.740356
-809.267212 -1708.754150 -410.740356
-788.380188 -1732.694092 -410.740356
-822.408203 -1733.264160 -410.740356
726.225769 -1865.854126 -410.740356
705.741821 -1841.164185 -410.740356
732.682800 -1864.114136 -410.740356
672.303772 -1798.314087 -410.740356
688.426819 -1809.744141 -410.740356
682.642822 -1802.204102 -410.740356
674.566772 -1793.334106 -410.740356
719.913818 -1814.924072 -410.740356
-794.392212 -1759.574097 -410.740356
-811.404175 -1746.714111 -410.740356
-791.106201 -1768.244141 -410.740356
-789.495178 -1779.144165 -410.740356
-733.670227 -1777.824097 -410.740356
-748.549194 -1744.524170 -410.740356
-756.370178 -1774.004150 -410.740356
-707.503174 -1768.874146 -410.740356
-722.858215 -1785.594116 -410.740356
-708.121216 -1773.944092 -410.740356
-697.606201 -1790.534180 -410.740356
-687.690186 -1787.974121 -410.740356
-731.864197 -1799.444092 -410.740356
-711.589233 -1801.464111 -410.740356
-707.928223 -1803.374146 -410.740356
-745.306213 -1814.474121 -410.740356
-689.165222 -1819.494141 -410.740356
-699.032227 -1845.314087 -410.740356
-694.166199 -1844.574097 -410.740356
-609.012207 -1809.054077 -410.740356
-665.526184 -1857.114136 -410.740356
-600.029175 -1822.244141 -410.740356
-688.932190 -1863.764160 -410.740356
-665.989197 -1826.574097 -410.740356
-612.822205 -1818.554077 -410.740356
-680.176208 -1831.974121 -410.740356
-613.953186 -1805.654175 -410.740356
-646.059204 -1792.764160 -410.740356
-667.152222 -1790.244141 -410.740356
-593.835205 -1827.284180 -410.740356
-669.448181 -1873.104126 -410.740356
-679.708191 -1876.724121 -410.740356
-640.748230 -1870.854126 -410.740356
-616.926208 -1849.364136 -410.740356
-674.849182 -1901.514160 -410.740356
104.278816 -1942.524170 -416.740356
124.054817 -2051.614014 -416.740356
94.900421 -1969.884155 -416.740356
113.386818 -1993.664185 -416.740356
121.324821 -1969.634155 -416.740356
114.898819 -1978.734131 -416.740356
127.000816 -1932.834106 -416.740356
123.274818 -1985.234131 -416.740356
99.598816 -1957.254150 -416.740356
137.452805 -1952.684082 -416.740356
115.696815 -2025.874146 -416.740356
81.640419 -2058.634033 -416.740356
81.466415 -2064.774170 -416.740356
106.174820 -2009.924072 -416.740356
103.636818 -2024.274170 -416.740356
96.628822 -2009.134155 -416.740356
100.216820 -2041.554077 -416.740356
90.814415 -2048.254150 -416.740356
39.628315 -2063.424072 -416.740356
66.328423 -2034.144165 -416.740356
59.842415 -2027.414185 -416.740356
39.940414 -2059.434082 -416.740356
48.046314 -2055.654053 -416.740356
44.968414 -2045.634155 -416.740356
70.426422 -2067.524170 -416.740356
74.476418 -1948.554077 -416.740356
9.598415 -1962.464111 -416.740356
26.956314 -1999.764160 -416.740356
12.520414 -1942.574097 -416.740356
41.860416 -2022.224121 -416.740356
7.144415 -1944.814087 -416.740356
34.192413 -2046.224121 -416.740356
59.644417 -1976.854126 -416.740356
9.136415 -1946.534180 -416.740356
36.112415 -2016.214111 -416.740356
41.428413 -1959.144165 -416.740356
-7.213585 -2021.334106 -416.740356
4.918435 -1969.544067 -416.740356
22.258415 -2050.434082 -416.740356
9.346415 -2061.843994 -416.740356
8.038315 -1989.754150 -416.740356
-1.327575 -1968.654175 -416.740356
-7.183555 -2009.974121 -416.740356
-16.831585 -2004.554077 -416.740356
-15.475585 -1985.304077 -416.740356
-20.869585 -1964.554077 -416.740356
-59.023586 -2059.204102 -416.740356
-24.535685 -1956.774170 -416.740356
-34.021584 -2031.984131 -416.740356
-32.083584 -2012.394165 -416.740356
-40.243584 -2070.494141 -416.740356
-26.131584 -2068.604004 -416.740356
-72.799583 -2028.834106 -416.740356
-58.879585 -2006.994141 -416.740356
-63.703686 -1982.364136 -416.740356
-53.125687 -1962.354126 -416.740356
-57.853584 -1964.664185 -416.740356
-27.505585 -1955.084106 -416.740356
-90.079582 -1965.134155 -416.740356
-63.847584 -1969.664185 -416.740356
-63.397587 -1953.154175 -416.740356
-77.131584 -1965.734131 -416.740356
-87.805580 -1958.124146 -416.740356
-115.903183 -2069.323975 -416.740356
-114.691185 -2034.784180 -416.740356
-120.223183 -2040.234131 -416.740356
-105.643181 -2009.744141 -416.740356
-107.305183 -1980.064087 -416.740356
-96.619583 -1958.954102 -416.740356
-99.037582 -1954.994141 -416.740356
-114.331184 -1954.034180 -416.740356
-134.131195 -1964.864136 -416.740356
-126.997185 -2053.073975 -416.740356
-106.471184 -1958.354126 -416.740356
-142.675186 -1935.754150 -416.740356
-102.151581 -1943.184082 -416.740356
-119.449181 -1933.654175 -416.740356
-152.413193 -1937.044067 -416.740356
-113.353180 -1996.304077 -416.740356
-146.449188 -1935.184082 -416.740356
-138.151184 -2007.594116 -416.740356
264.670837 -2006.134155 -416.740356
273.814819 -2017.084106 -416.740356
242.926804 -1965.164185 -416.740356
244.816818 -1999.924072 -416.740356
247.150818 -2022.764160 -416.740356
241.462814 -2025.184082 -416.740356
251.596817 -2011.394165 -416.740356
229.270813 -2033.214111 -416.740356
254.116806 -2046.184082 -416.740356
226.390808 -2000.554077 -416.740356
178.582809 -1954.744141 -416.740356
210.448807 -2030.274170 -416.740356
205.216812 -1971.244141 -416.740356
173.368805 -1926.774170 -416.740356
209.674805 -2016.284180 -416.740356
195.352814 -1972.454102 -416.740356
224.728806 -2044.044067 -416.740356
229.846817 -2007.234131 -416.740356
220.336807 -1957.004150 -416.740356
189.310806 -1981.814087 -416.740356
219.016815 -2017.424072 -416.740356
174.316818 -2010.474121 -416.740356
193.348816 -2020.024170 -416.740356
186.406815 -2006.344116 -416.740356
182.512817 -2036.224121 -416.740356
177.172806 -1988.484131 -416.740356
169.006805 -1989.174072 -416.740356
173.818817 -2022.354126 -416.740356
141.970810 -2057.124023 -416.740356
148.390808 -1990.144165 -416.740356
140.494812 -2028.344116 -416.740356
162.898804 -2043.614136 -416.740356
156.634811 -1954.174072 -416.740356
165.442810 -2063.414062 -416.740356
138.148804 -2044.884155 -416.740356
-332.623169 -1974.914185 -416.740356
-342.991180 -2015.304077 -416.740356
-356.329163 -2046.774170 -416.740356
-343.189178 -1987.824097 -416.740356
-327.583160 -2004.854126 -416.740356
-337.789185 -1918.274170 -416.740356
-348.571167 -1970.074097 -416.740356
-271.417175 -1932.744141 -416.740356
-310.351166 -1902.704102 -416.740356
-318.157166 -2051.293945 -416.740356
-314.227173 -1950.954102 -416.740356
-311.119171 -2019.924072 -416.740356
-316.591187 -1927.154175 -416.740356
-296.269165 -1966.634155 -416.740356
-318.925171 -1925.734131 -416.740356
-325.885162 -1963.244141 -416.740356
-285.991180 -1943.604126 -416.740356
-273.211182 -1923.654175 -416.740356
-323.761169 -1987.904175 -416.740356
-299.077179 -1925.964111 -416.740356
-175.771194 -1930.184082 -416.740356
-160.975189 -2003.654175 -416.740356
-170.401184 -2016.544067 -416.740356
-142.777191 -2029.724121 -416.740356
-157.615189 -2058.793945 -416.740356
-179.839188 -2026.504150 -416.740356
-139.963196 -2050.924072 -416.740356
-204.043182 -2030.364136 -416.740356
-189.415192 -1979.374146 -416.740356
-187.591187 -1990.424072 -416.740356
-193.957184 -2057.654053 -416.740356
-190.651184 -1990.584106 -416.740356
-209.137192 -1929.174072 -416.740356
-245.887192 -1952.404175 -416.740356
-246.079193 -1951.044067 -416.740356
-244.183182 -1969.404175 -416.740356
-249.901184 -1921.294067 -416.740356
-215.821182 -1945.744141 -416.740356
-225.751190 -1959.544067 -416.740356
-222.595184 -1947.114136 -416.740356
-250.363190 -1935.634155 -416.740356
-233.437195 -1995.594116 -416.740356
-207.835190 -1928.744141 -416.740356
-214.873184 -2015.924072 -416.740356
-232.717194 -2023.534180 -416.740356
-265.045166 -2021.384155 -416.740356
-250.231186 -1980.044067 -416.740356
-255.673187 -1928.304077 -416.740356
-257.137177 -2040.204102 -416.740356
-247.513184 -2033.744141 -416.740356
-257.995178 -1946.984131 -416.740356
-259.177185 -1984.934082 -416.740356
-270.979187 -2033.554077 -416.740356
-299.545166 -2034.744141 -416.740356
-273.877167 -2003.714111 -416.740356
-286.213165 -2046.564087 -416.740356
-283.135162 -1974.144165 -416.740356
-271.681183 -1954.784180 -416.740356
-285.475159 -2028.974121 -416.740356
301.090820 -2027.344116 -416.740356
264.160828 -1976.394165 -416.740356
298.264832 -2011.614136 -416.740356
271.306824 -1967.354126 -416.740356
282.802826 -2022.444092 -416.740356
286.438812 -1918.494141 -416.740356
322.366821 -1988.194092 -416.740356
291.784821 -1957.924072 -416.740356
247.156815 -1919.434082 -416.740356
320.932831 -1912.724121 -416.740356
311.908813 -1945.884155 -416.740356
309.694824 -1913.384155 -416.740356
311.350830 -1924.224121 -416.740356
267.016815 -1911.054077 -416.740356
310.942841 -2013.954102 -416.740356
296.104828 -1926.354126 -416.740356
308.542816 -1942.674072 -416.740356
290.608826 -1948.154175 -416.740356
328.084839 -1960.214111 -416.740356
336.148834 -1998.744141 -416.740356
329.398834 -1956.564087 -416.740356
327.712830 -2000.274170 -416.740356
333.790833 -2042.484131 -416.740356
346.018829 -2002.184082 -416.740356
533.841797 -1962.374146 -416.740356
516.322815 -1927.304077 -416.740356
501.346832 -1900.464111 -416.740356
522.706787 -1942.564087 -416.740356
-361.171173 -1961.344116 -416.740356
-375.421173 -2022.874146 -416.740356
-369.949188 -1994.994141 -416.740356
-352.969177 -1964.704102 -416.740356
-358.171173 -1989.074097 -416.740356
-368.161163 -1992.614136 -416.740356
-366.427185 -1939.944092 -416.740356
-351.613159 -1917.454102 -416.740356
-436.894165 -2026.344116 -416.740356
-401.251160 -2016.454102 -416.740356
-411.919159 -1995.124146 -416.740356
-423.356171 -1917.084106 -416.740356
-410.569183 -1898.164185 -416.740356
-403.345184 -1924.454102 -416.740356
-438.108185 -2023.064087 -416.740356
-423.852173 -1944.164185 -416.740356
-428.358185 -1966.724121 -416.740356
-365.119171 -1902.684082 -416.740356
-419.497162 -1949.614136 -416.740356
-396.553162 -1916.424072 -416.740356
-409.951172 -1901.034180 -416.740356
-420.655182 -1941.894165 -416.740356
-379.921173 -1912.994141 -416.740356
-420.001160 -1966.104126 -416.740356
366.502838 -1931.084106 -416.740356
387.730835 -1946.774170 -416.740356
387.994812 -1964.964111 -416.740356
415.702820 -1958.174072 -416.740356
339.292816 -1913.934082 -416.740356
417.700836 -2011.254150 -416.740356
399.958832 -1981.454102 -416.740356
366.958832 -1916.964111 -416.740356
351.850830 -1912.444092 -416.740356
365.590820 -1949.484131 -416.740356
404.662811 -1920.884155 -416.740356
363.514832 -1893.294067 -416.740356
409.126831 -1963.154175 -416.740356
385.300812 -1987.254150 -416.740356
390.208832 -2002.114136 -416.740356
408.454834 -2009.804077 -416.740356
391.978821 -2003.274170 -416.740356
400.528839 -2019.794067 -416.740356
352.186829 -1975.764160 -416.740356
372.622833 -2030.604126 -416.740356
356.572815 -2027.164185 -416.740356
354.514832 -1984.874146 -416.740356
360.250824 -1981.574097 -416.740356
518.031799 -1972.974121 -416.740356
502.144836 -1946.744141 -416.740356
504.262817 -1941.284180 -416.740356
493.708832 -1886.494141 -416.740356
510.640839 -1965.524170 -416.740356
522.015808 -2000.414185 -416.740356
463.024841 -1894.804077 -416.740356
455.254822 -1886.354126 -416.740356
467.542816 -1934.794067 -416.740356
482.998840 -1954.194092 -416.740356
467.320831 -1954.494141 -416.740356
441.622833 -1870.394165 -416.740356
462.928833 -1951.164185 -416.740356
462.256836 -1956.744141 -416.740356
475.996826 -1923.874146 -416.740356
470.578827 -1902.654175 -416.740356
478.540833 -1914.494141 -416.740356
451.594818 -1864.194092 -416.740356
454.318817 -1894.914185 -416.740356
444.910828 -1958.324097 -416.740356
460.024841 -2011.944092 -416.740356
440.800812 -1950.854126 -416.740356
450.652832 -1964.364136 -416.740356
461.494812 -1999.534180 -416.740356
413.056824 -1901.444092 -416.740356
425.242828 -2015.104126 -416.740356
448.546814 -2003.034180 -416.740356
447.172821 -2000.314087 -416.740356
436.786835 -1975.954102 -416.740356
610.575806 -1879.304077 -416.740356
597.754822 -1850.854126 -416.740356
608.854797 -1863.894165 -416.740356
624.988770 -1901.304077 -416.740356
-455.700165 -1992.524170 -416.740356
-431.505188 -1954.424072 -416.740356
-452.234161 -2024.094116 -416.740356
-464.004181 -2019.124146 -416.740356
-440.388184 -2000.814087 -416.740356
-423.001160 -1889.774170 -416.740356
-463.269165 -1968.924072 -416.740356
-463.723175 -1953.404175 -416.740356
-481.754181 -1970.514160 -416.740356
-472.702179 -1996.524170 -416.740356
-452.055176 -1938.054077 -416.740356
-446.089172 -1914.804077 -416.740356
-493.041168 -1934.184082 -416.740356
-452.652161 -1880.954102 -416.740356
-448.811188 -1911.184082 -416.740356
-485.814178 -1956.234131 -416.740356
-483.821167 -1937.384155 -416.740356
-462.238159 -1882.324097 -416.740356
-498.900177 -1915.384155 -416.740356
-496.528168 -1949.304077 -416.740356
-486.657166 -1867.944092 -416.740356
-465.573181 -1914.024170 -416.740356
-464.568176 -1893.744141 -416.740356
-506.997162 -2005.054077 -416.740356
-529.854187 -1979.514160 -416.740356
-502.348175 -1887.024170 -416.740356
-506.824188 -1938.514160 -416.740356
-513.038208 -1980.204102 -416.740356
-505.957184 -1910.034180 -416.740356
-513.957214 -1884.114136 -416.740356
-538.014221 -1983.404175 -416.740356
-529.584229 -1961.614136 -416.740356
-504.016174 -1858.964111 -416.740356
-534.550232 -1929.624146 -416.740356
-543.160217 -1912.004150 -416.740356
-550.402222 -1942.614136 -416.740356
-540.337219 -1935.084106 -416.740356
-542.194214 -1929.524170 -416.740356
-576.139221 -1941.614136 -416.740356
-599.840210 -1964.544067 -416.740356
-586.863220 -1970.334106 -416.740356
-530.182190 -1842.674072 -416.740356
-527.387207 -1859.124146 -416.740356
-583.271179 -1829.694092 -416.740356
-585.747192 -1912.704102 -416.740356
-551.440186 -1904.954102 -416.740356
-535.256226 -1883.294067 -416.740356
-589.842224 -1933.014160 -416.740356
-552.048218 -1878.794067 -416.740356
-589.283203 -1879.074097 -416.740356
-506.663177 -1847.254150 -416.740356
-530.060181 -1841.504150 -416.740356
-512.801208 -1857.544067 -416.740356
-596.272217 -1947.904175 -416.740356
-609.072205 -1911.204102 -416.740356
-613.718201 -1940.044067 -416.740356
-598.272217 -1910.234131 -416.740356
-602.473206 -1919.034180 -416.740356
-617.089233 -1915.634155 -416.740356
-621.453186 -1912.274170 -416.740356
-611.004211 -1873.034180 -416.740356
-610.759216 -1880.324097 -416.740356
614.367798 -1926.604126 -416.740356
622.198792 -1908.974121 -416.740356
598.846802 -1889.824097 -416.740356
596.590820 -1916.384155 -416.740356
598.833801 -1931.774170 -416.740356
617.182800 -1952.034180 -416.740356
608.986816 -1941.264160 -416.740356
555.526794 -1855.894165 -416.740356
585.442810 -1928.194092 -416.740356
493.360840 -1854.944092 -416.740356
541.701782 -1871.444092 -416.740356
584.835815 -1888.694092 -416.740356
575.068787 -1897.014160 -416.740356
542.182800 -1903.534180 -416.740356
567.435791 -1885.964111 -416.740356
506.626831 -1859.864136 -416.740356
556.216797 -1849.004150 -416.740356
565.924805 -1911.594116 -416.740356
551.362793 -1845.394165 -416.740356
573.843811 -1896.084106 -416.740356
514.107788 -1879.774170 -416.740356
580.029785 -1970.834106 -416.740356
505.000824 -1875.504150 -416.740356
552.136780 -1934.994141 -416.740356
546.556824 -1946.174072 -416.740356
565.192810 -1974.254150 -416.740356
547.209778 -1937.294067 -416.740356
500.254822 -1876.404175 -416.740356
636.292786 -1882.204102 -416.740356
650.770813 -1896.294067 -416.740356
628.120789 -1868.024170 -416.740356
602.187805 -1845.964111 -416.740356
646.306824 -1864.894165 -416.740356
589.864807 -1830.394165 -416.740356
640.708801 -1825.964111 -416.740356
680.134766 -1891.574097 -416.740356
634.888794 -1794.264160 -416.740356
600.190796 -1843.574097 -416.740356
608.961792 -1831.424072 -416.740356
656.997803 -1830.884155 -416.740356
657.010803 -1874.584106 -416.740356
671.980774 -1865.324097 -416.740356
617.902771 -1825.304077 -416.740356
644.601807 -1865.984131 -416.740356
688.378784 -1893.424072 -416.740356
677.560791 -1872.644165 -416.740356
689.421814 -1877.804077 -416.740356
-831.370178 -1713.224121 -416.740356
-786.493225 -1722.734131 -416.740356
-793.016174 -1716.424072 -416.740356
-816.132202 -1725.384155 -416.740356
-804.099182 -1735.964111 -416.740356
-788.915222 -1746.894165 -416.740356
-759.040222 -1741.034180 -416.740356
-798.431213 -1763.024170 -416.740356
-722.695190 -1859.634155 -416.740356
712.101807 -1791.864136 -416.740356
739.018799 -1757.874146 -416.740356
706.402771 -1781.364136 -416.740356
689.529785 -1787.024170 -416.740356
750.808777 -1780.844116 -416.740356
765.207825 -1795.974121 -416.740356
732.375793 -1783.944092 -416.740356
765.981812 -1805.824097 -416.740356
678.873779 -1790.474121 -416.740356
693.112793 -1793.944092 -416.740356
758.247803 -1828.174072 -416.740356
705.754822 -1807.834106 -416.740356
672.442810 -1793.054077 -416.740356
767.080811 -1733.964111 -416.740356
824.295776 -1719.774170 -416.740356
822.892822 -1725.794067 -416.740356
788.199768 -1742.014160 -416.740356
800.019775 -1754.894165 -416.740356
803.763794 -1749.284180 -416.740356
774.177795 -1760.364136 -416.740356
771.561768 -1784.114136 -416.740356
-621.421204 -1887.954102 -416.740356
-595.284180 -1834.424072 -416.740356
-624.958191 -1880.754150 -416.740356
-667.611206 -1893.084106 -416.740356
-647.628174 -1886.414185 -416.740356
-669.405212 -1900.374146 -416.740356
-678.949219 -1885.764160 -416.740356
-599.298218 -1829.184082 -416.740356
-647.581177 -1815.534180 -416.740356
-672.408203 -1888.174072 -416.740356
-668.625183 -1870.104126 -416.740356
-654.561218 -1794.734131 -416.740356
-634.170227 -1808.474121 -416.740356
-637.366211 -1824.614136 -416.740356
-643.607178 -1851.734131 -416.740356
-599.219177 -1820.804077 -416.740356
-660.259216 -1784.334106 -416.740356
-697.914185 -1885.224121 -416.740356
-702.304199 -1887.144165 -416.740356
-705.957214 -1874.054077 -416.740356
-717.619202 -1871.454102 -416.740356
-687.058228 -1825.094116 -416.740356
-680.970215 -1798.524170 -416.740356
-732.409180 -1843.784180 -416.740356
-683.352234 -1798.164185 -416.740356
-728.618225 -1823.754150 -416.740356
-761.296204 -1820.894165 -416.740356
-751.647217 -1816.774170 -416.740356
-690.411194 -1787.114136 -416.740356
-744.370178 -1798.724121 -416.740356
-730.869202 -1755.534180 -416.740356
-754.125183 -1789.884155 -416.740356
-734.162231 -1757.414185 -416.740356
-729.392212 -1762.434082 -416.740356
-753.184204 -1782.944092 -416.740356
-732.623230 -1763.584106 -416.740356
-764.209229 -1781.684082 -416.740356
-797.289185 -1770.674072 -416.740356
731.499817 -1834.024170 -416.740356
673.270813 -1798.964111 -416.740356
718.888794 -1856.984131 -416.740356
689.601807 -1824.764160 -416.740356
689.074768 -1856.924072 -416.740356
694.443787 -1866.954102 -416.740356
702.171814 -1882.844116 -416.740356
-327.037170 -2052.043945 -410.763336
-469.783173 -2021.744141 -410.782349
701.986816 -1899.244141 -410.852356
785.973816 -1802.234131 -410.861359
751.053772 -1850.124146 -410.976349
563.445801 -1985.264160 -411.097351
-333.463165 -2052.644043 -411.434357
8.182415 -2075.164062 -412.303345
-433.514160 -2033.784180 -412.558350
320.872833 -2053.684082 -413.622345
-366.415161 -2048.333984 -413.596344
-817.651184 -1749.304077 -414.191345
-308.731171 -2057.323975 -414.417358
571.257812 -1983.324097 -414.795349
-758.707214 -1830.054077 -415.506348
-131.989182 -2071.674072 -416.099365
404.140839 -2036.614136 -416.122345
-204.901184 -2066.754150 -416.401337
-12.007565 -2074.194092 -416.260345
250.408813 -2061.464111 -416.311340
246.130814 -2061.134033 -416.640350
-63.535686 -2072.303955 -416.715363
204.610809 -2064.764160 -416.712341
480.064819 -2014.884155 -416.715363
739.239807 -1834.864136 -327.782349
727.161804 -1845.844116 -327.978363
688.096802 -1877.184082 -324.564362
634.660767 -1914.224121 -340.401337
608.596802 -1930.924072 -340.429352
603.591797 -1934.084106 -326.406342
585.064819 -1945.524170 -337.540344
582.370789 -1947.184082 -336.815338
566.878784 -1956.554077 -336.993347
537.190796 -1974.184082 -337.449341
530.518799 -1978.114136 -336.245361
514.354797 -1987.484131 -334.548340
489.364838 -2001.814087 -329.870361
774.171814 -1724.834106 -284.398346
776.379822 -1688.624146 -267.762329
776.703796 -1696.504150 -265.312347
772.575806 -1692.204102 -296.417358
775.941772 -1685.924072 -271.055328
773.061768 -1702.934082 -292.733337
775.395813 -1782.354126 -275.146332
777.465820 -1698.754150 -259.567352
774.453796 -1751.874146 -282.268341
772.185791 -1794.814087 -299.336365
777.580811 -1773.654175 -258.687347
772.137817 -1764.514160 -258.166351
772.042786 -1750.184082 -258.166351
772.299805 -1744.464111 -258.166351
766.287781 -1755.804077 -258.166351
762.478821 -1794.644165 -263.442352
761.211792 -1722.444092 -273.178345
760.888794 -1753.934082 -275.643341
758.146790 -1693.884155 -296.695343
759.370789 -1733.934082 -287.293365
759.736816 -1690.434082 -284.502350
760.179810 -1686.484131 -281.107361
757.612793 -1809.024170 -300.822357
760.437805 -1788.684082 -279.127350
758.332825 -1777.324097 -295.288361
758.295776 -1717.274170 -295.575348
757.911804 -1722.654175 -298.498352
754.174805 -1693.134155 -312.370361
755.265808 -1798.784180 -310.354340
746.631775 -1765.094116 -320.375366
748.545776 -1823.294067 -319.051361
751.497803 -1814.874146 -316.141357
745.252808 -1807.304077 -321.232361
745.107788 -1751.124146 -321.305359
744.021790 -1779.654175 -321.898346
742.426819 -1808.304077 -322.636353
738.526794 -1773.064087 -323.809357
491.686829 -1972.674072 -324.383362
484.816833 -1919.134155 -324.383362
486.232819 -1912.244141 -324.383362
478.792816 -1853.714111 -324.383362
506.968842 -1951.424072 -324.383362
496.528839 -1934.574097 -324.383362
497.104828 -1948.224121 -324.383362
505.138824 -1922.864136 -324.383362
503.248840 -1905.874146 -324.383362
494.560822 -1920.004150 -324.383362
508.540802 -1866.624146 -324.383362
529.840820 -1923.314087 -324.383362
529.749817 -1937.594116 -324.383362
514.491821 -1902.824097 -324.383362
524.505798 -1928.904175 -324.383362
537.357788 -1927.554077 -324.383362
556.432800 -1921.734131 -324.383362
502.366821 -1829.484131 -324.383362
555.520813 -1926.564087 -324.383362
548.661804 -1928.834106 -324.383362
535.179810 -1902.734131 -324.383362
553.324768 -1868.294067 -324.383362
519.483826 -1824.464111 -324.383362
512.572815 -1830.054077 -324.383362
544.216797 -1887.934082 -324.383362
571.942810 -1934.964111 -324.383362
522.951782 -1851.114136 -324.383362
513.604797 -1826.714111 -324.383362
504.052826 -1821.094116 -324.383362
495.364838 -1812.954102 -324.383362
524.332825 -1784.624146 -324.383362
501.142822 -1755.044067 -324.383362
573.741821 -1858.834106 -324.383362
573.394775 -1872.614136 -324.383362
540.988770 -1833.624146 -324.383362
601.966797 -1901.154175 -324.383362
562.534790 -1863.134155 -324.383362
582.795776 -1900.634155 -324.383362
558.904785 -1867.604126 -324.383362
541.287781 -1842.584106 -324.383362
500.536835 -1737.404175 -324.383362
534.916809 -1790.474121 -324.383362
612.975769 -1900.074097 -324.383362
532.287781 -1778.624146 -324.383362
574.042786 -1827.654175 -324.383362
551.967773 -1806.744141 -324.383362
567.568787 -1835.024170 -324.383362
539.362793 -1776.864136 -324.383362
603.375793 -1838.984131 -324.383362
641.139771 -1901.274170 -324.383362
592.695801 -1834.404175 -324.383362
617.241821 -1873.674072 -324.383362
536.182800 -1745.064087 -324.383362
579.472778 -1819.044067 -324.383362
521.434814 -1742.784180 -324.383362
582.789795 -1827.894165 -324.383362
621.669800 -1846.844116 -324.383362
610.066772 -1825.874146 -324.383362
599.278809 -1800.044067 -324.383362
611.037781 -1830.854126 -324.383362
651.934814 -1887.124146 -324.383362
546.832825 -1733.884155 -324.383362
560.848816 -1755.644165 -324.383362
568.120789 -1780.644165 -324.383362
667.402771 -1856.964111 -324.383362
649.114807 -1833.504150 -324.383362
573.244812 -1723.174072 -324.383362
566.247803 -1722.774170 -324.383362
547.773804 -1698.944092 -324.383362
625.870789 -1811.714111 -324.383362
641.950806 -1839.804077 -324.383362
641.416809 -1833.374146 -324.383362
545.098816 -1709.424072 -324.383362
565.233826 -1741.874146 -324.383362
588.184814 -1778.064087 -324.383362
732.628784 -1838.144165 -324.383362
664.120789 -1751.304077 -324.383362
703.864807 -1750.904175 -324.383362
689.932800 -1767.804077 -324.383362
670.738770 -1731.624146 -324.383362
649.281799 -1718.614136 -324.383362
695.529785 -1763.174072 -324.383362
691.833801 -1713.014160 -324.383362
692.950806 -1715.774170 -324.383362
635.529785 -1693.244141 -324.383362
714.099792 -1756.944092 -324.383362
680.896790 -1766.924072 -324.383362
652.474792 -1710.484131 -324.383362
701.217773 -1762.584106 -324.383362
702.975769 -1806.024170 -324.383362
642.249817 -1689.654175 -324.383362
683.386780 -1720.034180 -324.383362
647.685791 -1710.124146 -324.383362
695.031799 -1692.824097 -324.383362
729.310791 -1730.144165 -324.383362
706.911804 -1691.214111 -324.383362
614.644775 -1687.974121 -324.383362
634.144775 -1723.424072 -324.383362
667.864807 -1775.254150 -324.383362
639.789795 -1747.334106 -324.383362
609.171814 -1707.864136 -324.383362
710.806824 -1838.384155 -324.383362
625.948792 -1736.264160 -324.383362
682.732788 -1816.504150 -324.383362
661.389771 -1798.904175 -324.383362
638.560791 -1771.654175 -324.383362
632.926819 -1759.424072 -324.383362
618.964783 -1750.064087 -324.383362
661.155823 -1807.064087 -324.383362
618.916809 -1763.494141 -324.383362
582.147766 -1709.354126 -324.383362
618.910767 -1756.324097 -324.383362
607.612793 -1750.494141 -324.383362
600.975769 -1742.154175 -324.383362
663.292786 -1834.204102 -324.383362
594.561768 -1746.434082 -324.383362
478.714813 -1805.274170 -325.214355
487.282837 -1961.034180 -337.737366
485.146820 -1855.904175 -334.609344
488.056824 -1954.154175 -338.867340
479.104828 -1912.444092 -325.786346
481.192841 -1988.794067 -328.830353
480.682831 -1900.674072 -328.091339
480.736816 -1924.824097 -328.167358
497.260834 -1972.884155 -340.566345
493.714813 -1933.314087 -340.566345
495.934814 -1920.854126 -340.566345
542.416809 -1887.734131 -340.566345
528.951782 -1881.114136 -340.566345
560.746826 -1957.104126 -340.566345
572.919800 -1945.894165 -340.566345
539.800781 -1904.594116 -340.566345
536.488770 -1958.684082 -340.566345
536.098816 -1951.194092 -340.566345
533.986816 -1923.034180 -340.566345
534.255798 -1944.094116 -340.566345
526.660767 -1953.614136 -340.566345
544.354797 -1942.034180 -340.566345
507.484833 -1984.574097 -340.566345
498.862823 -1932.604126 -340.566345
493.456818 -1841.264160 -340.566345
501.244812 -1917.764160 -340.566345
495.016815 -1867.034180 -340.566345
498.478821 -1790.384155 -340.566345
554.865784 -1774.404175 -340.566345
540.604797 -1752.024170 -340.566345
559.077820 -1770.484131 -340.566345
628.671814 -1890.264160 -340.566345
633.429810 -1895.974121 -340.566345
636.273804 -1885.544067 -340.566345
591.669800 -1881.404175 -340.566345
575.956787 -1850.324097 -340.566345
522.136780 -1763.684082 -340.566345
607.318787 -1886.434082 -340.566345
611.536804 -1884.034180 -340.566345
577.174805 -1847.294067 -340.566345
586.120789 -1865.634155 -340.566345
607.833801 -1878.804077 -340.566345
543.982788 -1783.364136 -340.566345
529.263794 -1752.654175 -340.566345
513.123779 -1801.344116 -340.566345
499.792816 -1777.404175 -340.566345
609.784790 -1917.574097 -340.566345
553.324768 -1856.004150 -340.566345
547.233826 -1844.814087 -340.566345
585.225769 -1899.474121 -340.566345
566.236816 -1876.214111 -340.566345
546.550781 -1825.144165 -340.566345
553.606812 -1831.254150 -340.566345
500.680817 -1751.254150 -340.566345
591.064819 -1808.274170 -340.566345
576.760803 -1794.144165 -340.566345
591.130798 -1801.574097 -340.566345
607.552795 -1810.924072 -340.566345
594.513794 -1800.514160 -340.566345
640.203796 -1863.794067 -340.566345
661.090820 -1887.774170 -340.566345
547.905823 -1715.764160 -340.566345
652.408813 -1850.344116 -340.566345
665.577820 -1874.174072 -340.566345
594.862793 -1776.184082 -340.566345
638.776794 -1839.614136 -340.566345
578.343811 -1934.284180 -340.566345
526.413818 -1848.504150 -340.566345
570.598816 -1917.434082 -340.566345
558.873779 -1911.734131 -340.566345
497.992828 -1807.024170 -340.566345
518.193787 -1823.084106 -340.566345
690.832825 -1757.484131 -340.566345
728.908813 -1738.274170 -340.566345
691.755798 -1702.074097 -340.566345
637.534790 -1683.404175 -340.566345
728.631775 -1787.964111 -340.566345
687.945801 -1725.444092 -340.566345
685.408813 -1749.904175 -340.566345
685.528809 -1713.504150 -340.566345
721.816772 -1728.094116 -340.566345
694.677795 -1723.424072 -340.566345
666.381775 -1738.264160 -340.566345
688.647766 -1696.824097 -340.566345
728.596802 -1794.374146 -340.566345
689.404785 -1720.544067 -340.566345
707.536804 -1751.934082 -340.566345
661.066772 -1684.654175 -340.566345
703.833801 -1787.484131 -340.566345
689.763794 -1836.374146 -340.566345
608.098816 -1693.704102 -340.566345
641.620789 -1732.304077 -340.566345
674.169800 -1804.754150 -340.566345
680.668823 -1808.304077 -340.566345
634.144775 -1697.454102 -340.566345
671.614807 -1778.064087 -340.566345
707.553772 -1860.944092 -340.566345
655.239807 -1728.804077 -340.566345
690.513794 -1791.374146 -340.566345
676.515808 -1773.534180 -340.566345
612.945801 -1731.384155 -340.566345
610.359802 -1726.074097 -340.566345
617.553772 -1731.294067 -340.566345
659.302795 -1790.004150 -340.566345
661.096802 -1793.604126 -340.566345
644.061768 -1833.674072 -340.566345
615.021790 -1798.154175 -340.566345
565.575806 -1716.134155 -340.566345
568.918823 -1729.624146 -340.566345
624.442810 -1791.594116 -340.566345
619.131775 -1780.124146 -340.566345
572.806824 -1721.044067 -340.566345
654.531799 -1821.514160 -340.566345
605.529785 -1756.614136 -340.566345
643.677795 -1799.604126 -340.566345
618.381775 -1769.484131 -340.566345
655.894775 -1817.604126 -340.566345
594.808777 -1729.304077 -340.566345
611.386780 -1736.354126 -340.566345
733.972778 -1697.574097 -340.238342
735.418823 -1818.884155 -340.117340
733.072815 -1815.404175 -340.418365
747.346802 -1706.624146 -336.646362
747.663818 -1808.964111 -336.576355
743.068787 -1770.084106 -338.448364
739.467773 -1783.904175 -339.350342
759.021790 -1737.134155 -328.690338
757.612793 -1803.394165 -330.067352
753.130798 -1699.104126 -333.430359
751.090820 -1763.554077 -334.792358
767.445801 -1798.904175 -317.323364
766.851807 -1736.744141 -318.331360
766.072815 -1794.304077 -319.875366
764.956787 -1797.384155 -321.698364
771.220825 -1754.324097 -305.641357
771.015808 -1786.284180 -307.034363
770.487793 -1747.984131 -309.327362
769.822815 -1739.394165 -311.461365
767.949768 -1724.414185 -316.353363
708.201782 -1682.504150 -340.348358
682.047791 -1682.504150 -334.417358
675.357788 -1682.504150 -327.702362
727.023804 -1682.504150 -336.670349
751.209778 -1682.504150 -332.275360
762.142822 -1682.504150 -320.036346
766.983826 -1682.504150 -290.460358
512.356812 -1722.864136 -326.503357
581.956787 -1686.914185 -329.481354
727.606812 -1845.474121 -291.772339
726.297791 -1779.614136 -275.490356
726.862793 -1824.954102 -272.045349
726.609802 -1736.404175 -273.567352
725.523804 -1782.834106 -280.235352
726.609802 -1742.454102 -273.590332
725.980774 -1781.804077 -277.453339
721.552795 -1791.484131 -304.560364
723.322815 -1760.964111 -293.715363
723.351807 -1796.124146 -293.535339
722.206787 -1750.664185 -300.541351
724.233826 -1771.154175 -288.145355
726.130798 -1689.304077 -276.532349
724.185791 -1754.884155 -288.412354
723.778809 -1798.134155 -290.922363
720.394775 -1763.094116 -311.650360
721.042786 -1779.054077 -307.668365
719.644775 -1844.124146 -316.229340
727.252808 -1788.884155 -317.168365
726.747803 -1766.694092 -317.168365
719.967773 -1709.144165 -317.168365
720.166809 -1773.204102 -317.168365
732.760803 -1810.374146 -303.264343
730.617798 -1688.364136 -316.382355
731.529785 -1725.404175 -310.770355
730.755798 -1691.324097 -315.530365
735.561768 -1711.744141 -286.100342
738.123779 -1694.424072 -270.413330
732.184814 -1722.594116 -306.785339
734.757812 -1810.454102 -291.006348
735.093811 -1794.714111 -288.937347
735.136780 -1776.124146 -288.715363
737.956787 -1686.114136 -271.433350
737.638794 -1703.024170 -273.376343
737.236816 -1811.264160 -275.833344
738.310791 -1818.684082 -269.239349
737.679810 -1831.274170 -273.125336
735.069824 -1775.094116 -266.072357
733.953796 -1728.264160 -266.072357
730.155823 -1682.504150 -302.343353
724.491821 -1682.504150 -298.258362
694.953796 -1872.044067 -305.845337
699.832825 -1868.334106 -294.920349
708.771790 -1859.024170 -266.072357
708.160767 -1838.804077 -266.072357
706.257812 -1713.834106 -266.072357
702.400818 -1735.004150 -266.072357
692.583801 -1705.884155 -298.222351
692.757812 -1709.064087 -297.162354
696.765808 -1686.524170 -272.629333
692.464783 -1695.104126 -298.982361
694.552795 -1785.394165 -286.165344
694.029785 -1708.404175 -289.386353
696.028809 -1825.704102 -277.156342
697.042786 -1796.924072 -270.925354
697.012817 -1771.094116 -271.110352
694.827820 -1744.314087 -284.506348
693.825806 -1804.734131 -290.621338
692.967773 -1858.564087 -295.887360
692.679810 -1839.644165 -297.643341
692.625793 -1869.374146 -297.988342
690.639771 -1802.654175 -310.129364
689.494812 -1818.644165 -317.157349
692.074768 -1838.214111 -301.356354
692.553772 -1753.034180 -298.422363
694.911804 -1843.744141 -283.986359
690.424805 -1852.594116 -311.482361
692.596802 -1702.664185 -317.168365
698.818787 -1783.034180 -317.168365
696.327820 -1849.074097 -317.168365
690.201782 -1868.804077 -317.168365
700.623779 -1754.184082 -316.337341
705.867798 -1844.344116 -284.218353
705.238770 -1853.994141 -288.078339
701.080811 -1709.544067 -313.534363
701.031799 -1831.774170 -313.830353
702.166809 -1746.354126 -306.887360
704.698792 -1819.274170 -291.387360
703.666809 -1797.064087 -297.709351
705.208801 -1804.384155 -288.252350
705.208801 -1787.114136 -288.253357
705.130798 -1707.624146 -288.751343
706.491821 -1828.394165 -280.404358
705.099792 -1711.794067 -288.917358
707.367798 -1717.894165 -275.011353
707.884766 -1775.394165 -271.849335
703.684814 -1744.214111 -297.594360
703.083801 -1696.724121 -301.283356
708.706787 -1794.654175 -266.835358
708.682800 -1749.394165 -266.991333
668.115784 -1891.614136 -310.708344
677.830811 -1884.714111 -267.248352
673.654785 -1807.874146 -266.072357
678.112793 -1742.904175 -266.072357
678.088806 -1693.314087 -266.072357
671.674805 -1841.154175 -266.072357
664.953796 -1721.714111 -283.715363
664.521790 -1772.384155 -286.383362
667.636780 -1743.824097 -267.286346
662.356812 -1716.464111 -299.646362
665.061768 -1716.904175 -283.069336
666.585815 -1759.044067 -273.730347
663.093811 -1743.014160 -295.097351
667.623779 -1875.744141 -267.371338
664.888794 -1698.144165 -284.120361
664.228821 -1789.344116 -288.169342
665.553772 -1739.094116 -280.060364
662.080811 -1783.004150 -301.311340
663.502808 -1862.194092 -292.620361
662.434814 -1881.314087 -299.143341
663.375793 -1823.834106 -293.378357
662.085815 -1847.214111 -301.273346
659.722778 -1848.554077 -315.780365
661.138794 -1848.744141 -307.081360
666.700806 -1891.144165 -273.016357
662.176819 -1810.994141 -300.739349
663.676819 -1863.614136 -291.552338
665.650818 -1863.304077 -279.449341
663.964783 -1759.664185 -317.168365
668.343811 -1711.774170 -317.168365
664.695801 -1853.294067 -317.168365
662.590820 -1818.314087 -317.168365
664.690796 -1840.974121 -317.168365
672.190796 -1701.344116 -306.755341
672.754822 -1747.044067 -303.277344
670.822815 -1870.214111 -315.114349
673.185791 -1704.044067 -300.649353
674.061768 -1792.334106 -295.279358
673.101807 -1700.114136 -301.166351
674.109802 -1716.374146 -294.978363
671.961792 -1716.714111 -308.131348
673.270813 -1739.594116 -300.123352
671.583801 -1849.914185 -310.458344
674.002808 -1705.484131 -295.657349
676.660767 -1805.744141 -279.353363
675.351807 -1788.674072 -287.385345
674.566772 -1884.224121 -292.181366
678.310791 -1855.364136 -269.239349
675.021790 -1881.014160 -289.409363
677.271790 -1808.464111 -275.620331
678.615784 -1701.914185 -267.384338
674.080811 -1880.864136 -295.176361
671.470825 -1881.734131 -311.159363
674.848816 -1856.964111 -290.456360
676.216797 -1831.074097 -282.075348
668.848816 -1682.504150 -277.327362
-781.969177 -1797.324097 -260.661346
-761.743225 -1820.024170 -327.405365
-742.507202 -1838.904175 -329.825348
-718.583191 -1859.464111 -337.008362
-646.513184 -1911.444092 -324.955353
-651.967224 -1907.804077 -332.021362
-631.323181 -1921.304077 -337.703339
-618.376221 -1929.554077 -338.796356
-598.653198 -1941.834106 -328.839355
-541.240234 -1976.274170 -331.629364
-507.590179 -1995.694092 -327.099365
-783.784180 -1732.824097 -269.221344
-781.809204 -1685.554077 -284.097351
-783.952209 -1721.994141 -267.954346
-783.804199 -1723.344116 -269.073334
-781.338196 -1694.154175 -287.653351
-780.286194 -1765.814087 -295.573364
-780.654175 -1723.654175 -292.805359
-780.000183 -1743.764160 -297.729340
-783.590210 -1784.654175 -270.679352
-780.203186 -1702.984131 -296.200348
-783.181213 -1775.004150 -273.761353
-784.994202 -1788.624146 -258.166351
-782.193176 -1729.824097 -258.166351
-776.005188 -1741.694092 -258.166351
-771.717224 -1725.294067 -258.166351
-765.717224 -1760.554077 -296.941345
-766.384216 -1809.444092 -291.812347
-766.255188 -1765.284180 -292.802338
-766.090210 -1800.824097 -294.070343
-768.127197 -1802.054077 -278.424347
-765.504211 -1765.004150 -298.571350
-770.114197 -1757.004150 -263.170349
-767.436218 -1698.974121 -283.740356
-768.435181 -1695.854126 -276.061340
-768.505188 -1693.524170 -275.524353
-769.422180 -1697.184082 -268.480347
-769.784180 -1754.454102 -265.701355
-770.667175 -1795.944092 -258.926331
-742.858215 -1718.714111 -324.223358
-741.793213 -1712.264160 -324.312347
-749.563232 -1712.374146 -322.757355
-748.962219 -1820.624146 -322.975342
-748.272217 -1808.134155 -323.172363
-745.437195 -1804.354126 -323.962341
-756.589233 -1719.824097 -318.586365
-761.175232 -1725.914185 -313.399353
-759.392212 -1760.334106 -315.787354
-763.355225 -1797.984131 -309.210358
-487.200165 -1863.724121 -324.383362
-488.134186 -1973.604126 -324.383362
-486.173187 -2002.854126 -324.383362
-487.061188 -1988.414185 -324.383362
-494.388184 -1917.834106 -324.383362
-523.639221 -1857.314087 -324.383362
-539.455200 -1893.584106 -324.383362
-542.288208 -1893.924072 -324.383362
-539.343201 -1893.584106 -324.383362
-549.763184 -1923.224121 -324.383362
-536.732178 -1921.344116 -324.383362
-495.723175 -1824.554077 -324.383362
-546.916199 -1970.414185 -324.383362
-536.793213 -1974.844116 -324.383362
-523.418213 -1913.784180 -324.383362
-494.092163 -1847.874146 -324.383362
-506.910187 -1961.004150 -324.383362
-497.545166 -1846.034180 -324.383362
-504.704163 -1878.864136 -324.383362
-493.893188 -1845.834106 -324.383362
-502.134186 -1910.994141 -324.383362
-598.326233 -1834.934082 -324.383362
-578.114197 -1806.694092 -324.383362
-628.267212 -1857.444092 -324.383362
-610.071228 -1844.184082 -324.383362
-631.086182 -1874.414185 -324.383362
-581.652222 -1796.364136 -324.383362
-534.452209 -1785.624146 -324.383362
-524.282227 -1760.894165 -324.383362
-577.056213 -1846.464111 -324.383362
-626.049194 -1902.394165 -324.383362
-626.747192 -1919.104126 -324.383362
-549.999207 -1796.164185 -324.383362
-536.332214 -1774.524170 -324.383362
-607.827209 -1877.964111 -324.383362
-525.105225 -1748.634155 -324.383362
-569.644226 -1803.674072 -324.383362
-501.424164 -1779.524170 -324.383362
-572.130188 -1880.934082 -324.383362
-586.463196 -1891.974121 -324.383362
-586.956177 -1886.144165 -324.383362
-584.209229 -1874.474121 -324.383362
-604.875183 -1909.784180 -324.383362
-606.210205 -1920.144165 -324.383362
-546.659180 -1818.064087 -324.383362
-529.483215 -1790.864136 -324.383362
-600.490234 -1933.704102 -324.383362
-546.046204 -1859.174072 -324.383362
-586.669189 -1948.704102 -324.383362
-595.237183 -1932.734131 -324.383362
-556.601196 -1895.774170 -324.383362
-528.007202 -1832.274170 -324.383362
-532.281189 -1829.164185 -324.383362
-546.401184 -1736.624146 -324.383362
-587.275208 -1798.314087 -324.383362
-562.141174 -1754.494141 -324.383362
-574.080200 -1772.834106 -324.383362
-631.857178 -1851.044067 -324.383362
-565.936218 -1746.884155 -324.383362
-654.298218 -1890.164185 -324.383362
-666.244202 -1888.234131 -324.383362
-548.572205 -1717.194092 -324.383362
-575.113220 -1749.854126 -324.383362
-635.301208 -1820.984131 -324.383362
-644.495178 -1837.214111 -324.383362
-581.086182 -1750.594116 -324.383362
-593.344177 -1770.554077 -324.383362
-694.467224 -1735.074097 -324.383362
-715.670227 -1772.184082 -324.383362
-692.093201 -1742.604126 -324.383362
-681.322205 -1705.304077 -324.383362
-680.850220 -1743.184082 -324.383362
-701.368225 -1711.034180 -324.383362
-630.703186 -1688.264160 -324.383362
-728.086182 -1687.634155 -324.383362
-711.910217 -1787.714111 -324.383362
-671.014221 -1740.734131 -324.383362
-657.654175 -1699.554077 -324.383362
-730.215210 -1806.394165 -324.383362
-689.577209 -1692.704102 -324.383362
-735.027222 -1823.534180 -324.383362
-738.661194 -1689.464111 -324.383362
-710.278198 -1687.074097 -324.383362
-735.187195 -1789.964111 -324.383362
-713.395203 -1788.094116 -324.383362
-721.254211 -1826.954102 -324.383362
-695.701233 -1780.174072 -324.383362
-711.562195 -1822.174072 -324.383362
-689.631226 -1789.944092 -324.383362
-658.000183 -1747.654175 -324.383362
-695.215210 -1794.114136 -324.383362
-670.171204 -1759.914185 -324.383362
-625.940186 -1798.544067 -324.383362
-578.635193 -1727.914185 -324.383362
-604.726196 -1762.214111 -324.383362
-634.696228 -1794.534180 -324.383362
-630.394226 -1794.744141 -324.383362
-659.402222 -1834.554077 -324.383362
-563.928223 -1701.204102 -324.383362
-576.408203 -1705.674072 -324.383362
-584.538208 -1717.094116 -324.383362
-642.580200 -1786.784180 -324.383362
-622.450195 -1759.494141 -324.383362
-663.537231 -1815.014160 -324.383362
-642.507202 -1778.134155 -324.383362
-642.285217 -1776.824097 -324.383362
-664.126221 -1795.574097 -324.383362
-705.034180 -1843.924072 -324.383362
-712.442200 -1854.844116 -324.383362
-663.557190 -1787.734131 -324.383362
-601.479187 -1711.884155 -324.383362
-714.414185 -1839.864136 -324.383362
-681.465210 -1801.154175 -324.383362
-715.043213 -1833.734131 -324.383362
-629.883179 -1733.144165 -324.383362
-647.801208 -1750.544067 -324.383362
-605.790222 -1702.664185 -324.383362
-495.128174 -1913.424072 -338.094360
-491.879181 -1941.774170 -333.346344
-494.442169 -1885.134155 -337.092346
-495.534180 -1986.284180 -338.688354
-491.604187 -1809.084106 -332.943359
-486.388184 -1819.764160 -325.321350
-487.212189 -1917.444092 -326.525360
-488.788177 -1815.284180 -328.827362
-498.840179 -1990.904175 -340.566345
-502.385162 -1935.684082 -340.566345
-509.196167 -1979.954102 -340.566345
-500.596161 -1817.984131 -340.566345
-512.511169 -1903.814087 -340.566345
-502.861176 -1851.924072 -340.566345
-519.750183 -1952.394165 -340.566345
-501.280182 -1865.704102 -340.566345
-527.146179 -1811.964111 -340.566345
-516.911194 -1761.114136 -340.566345
-539.095215 -1790.004150 -340.566345
-519.946228 -1772.604126 -340.566345
-600.481201 -1899.554077 -340.566345
-582.304199 -1875.284180 -340.566345
-588.796204 -1875.814087 -340.566345
-579.559204 -1866.694092 -340.566345
-515.682190 -1779.134155 -340.566345
-598.957214 -1919.734131 -340.566345
-541.792175 -1827.324097 -340.566345
-517.302185 -1789.654175 -340.566345
-535.961182 -1931.344116 -340.566345
-536.268188 -1957.294067 -340.566345
-525.402222 -1921.274170 -340.566345
-544.847229 -1952.684082 -340.566345
-550.532227 -1944.494141 -340.566345
-574.828186 -1953.734131 -340.566345
-544.161194 -1886.244141 -340.566345
-547.009216 -1918.064087 -340.566345
-547.767212 -1919.834106 -340.566345
-560.437195 -1951.204102 -340.566345
-537.834229 -1863.404175 -340.566345
-542.802185 -1853.724121 -340.566345
-551.764221 -1877.704102 -340.566345
-540.429199 -1847.844116 -340.566345
-563.004211 -1903.454102 -340.566345
-540.774231 -1855.234131 -340.566345
-527.157227 -1823.774170 -340.566345
-507.815186 -1796.344116 -340.566345
-520.422180 -1754.674072 -340.566345
-539.752197 -1785.404175 -340.566345
-637.542175 -1909.534180 -340.566345
-630.990234 -1905.674072 -340.566345
-630.711182 -1902.464111 -340.566345
-633.547180 -1918.314087 -340.566345
-612.934204 -1881.004150 -340.566345
-574.860229 -1813.854126 -340.566345
-609.047180 -1829.664185 -340.566345
-588.878174 -1803.104126 -340.566345
-595.017212 -1826.964111 -340.566345
-619.576233 -1847.254150 -340.566345
-596.240234 -1834.314087 -340.566345
-541.420227 -1755.254150 -340.566345
-559.535217 -1782.204102 -340.566345
-562.872192 -1740.164185 -340.566345
-657.316223 -1885.874146 -340.566345
-599.513184 -1787.744141 -340.566345
-654.568176 -1868.824097 -340.566345
-622.774231 -1843.634155 -340.566345
-587.382202 -1784.634155 -340.566345
-646.797180 -1880.664185 -340.566345
-543.925232 -1730.444092 -340.566345
-652.980225 -1819.404175 -340.566345
-623.644226 -1779.554077 -340.566345
-635.124207 -1802.204102 -340.566345
-688.025208 -1880.964111 -340.566345
-679.526184 -1870.314087 -340.566345
-665.261230 -1854.984131 -340.566345
-590.464233 -1753.924072 -340.566345
-659.731201 -1855.214111 -340.566345
-557.758179 -1707.094116 -340.566345
-597.334229 -1779.924072 -340.566345
-611.525208 -1798.604126 -340.566345
-732.224182 -1814.474121 -340.566345
-733.127197 -1777.214111 -340.566345
-725.375183 -1828.574097 -340.566345
-674.982178 -1683.974121 -340.566345
-662.907227 -1684.574097 -340.566345
-716.272217 -1744.454102 -340.566345
-667.314209 -1745.734131 -340.566345
-670.399231 -1715.014160 -340.566345
-685.266174 -1707.824097 -340.566345
-724.626221 -1683.124146 -340.566345
-732.566223 -1733.984131 -340.566345
-735.702209 -1693.244141 -340.566345
-729.043213 -1695.764160 -340.566345
-674.495178 -1714.244141 -340.566345
-683.906189 -1691.334106 -340.566345
-671.799194 -1709.564087 -340.566345
-693.159180 -1766.244141 -340.566345
-708.042175 -1689.674072 -340.566345
-701.183228 -1766.574097 -340.566345
-711.232178 -1778.104126 -340.566345
-689.023193 -1765.744141 -340.566345
-680.870178 -1776.834106 -340.566345
-711.210205 -1833.244141 -340.566345
-681.207214 -1782.254150 -340.566345
-628.667175 -1683.494141 -340.566345
-662.753174 -1761.454102 -340.566345
-686.593201 -1810.524170 -340.566345
-659.097229 -1766.014160 -340.566345
-640.845215 -1731.524170 -340.566345
-646.333191 -1749.314087 -340.566345
-635.118225 -1732.074097 -340.566345
-640.488220 -1756.284180 -340.566345
-686.223206 -1827.814087 -340.566345
-636.595215 -1757.364136 -340.566345
-611.497192 -1728.114136 -340.566345
-602.004211 -1717.234131 -340.566345
-707.224182 -1859.124146 -340.566345
-703.775208 -1865.814087 -340.566345
-681.877197 -1832.354126 -340.566345
-625.189209 -1767.974121 -340.566345
-591.983215 -1718.454102 -340.566345
-591.816223 -1727.214111 -340.566345
-778.168213 -1775.934082 -309.012360
-776.967224 -1716.394165 -312.745361
-777.572205 -1801.394165 -311.136353
-773.243225 -1743.954102 -320.517365
-771.425232 -1758.214111 -323.312347
-761.799194 -1713.514160 -332.763336
-762.192200 -1816.024170 -332.533356
-755.182190 -1803.034180 -336.609344
-754.428223 -1696.124146 -336.878357
-748.076233 -1814.214111 -339.118347
-745.918213 -1804.194092 -339.670349
-743.461182 -1831.214111 -340.102356
-741.433228 -1712.454102 -340.278351
-738.930176 -1821.624146 -340.500366
-772.882202 -1682.504150 -269.517334
-776.314209 -1682.504150 -294.464355
-767.830200 -1682.504150 -306.478363
-748.285217 -1682.504150 -333.925354
-713.823181 -1682.504150 -324.610352
-644.315186 -1682.504150 -327.564362
-705.274231 -1682.504150 -329.913361
-679.879211 -1682.504150 -337.752350
