ply
format ascii 1.0
element vertex 1362
property float x
property float y
property float z
end_header
1.545168 -2288.988037 -401.800476
-42.565784 -2200.458008 -386.591492
-1.408615 -2145.478027 -377.146484
-38.639984 -2205.058105 -387.381470
-54.509483 -2153.397949 -378.506470
-9.598785 -2256.838135 -396.276489
-29.538984 -2183.268066 -383.638489
-30.511284 -2178.818115 -382.873474
-14.216285 -2225.748047 -390.936462
-36.054783 -2177.927979 -382.720459
-2.327744 -2268.468018 -398.274475
-34.258785 -2150.897949 -378.078491
-72.155983 -2162.728027 -380.108459
-59.392483 -2295.387939 -403.123474
-57.572483 -2199.288086 -386.397461
-19.704084 -2271.258057 -398.772461
-50.130783 -2212.518066 -388.670471
-41.706985 -2269.697998 -398.585449
-82.464783 -2214.657959 -389.165466
-63.191788 -2295.248047 -403.113464
-44.997284 -2272.028076 -399.004456
-67.414986 -2262.548096 -397.440491
-51.825985 -2260.358154 -396.999451
-47.249485 -2230.598145 -391.803467
-44.675983 -2291.298096 -402.356445
-40.894783 -2256.637939 -396.310486
-74.923485 -2198.407959 -386.310486
-76.598282 -2164.018066 -380.333496
-180.089584 -2326.818115 -176.061478
-12.941485 -2238.548096 -191.396469
-41.868282 -2331.147949 -177.241470
-40.800785 -2276.098145 -185.653473
-23.233583 -2327.368164 -177.823471
-25.414783 -2234.248047 -192.048477
-1.960115 -2306.858154 -180.961472
-28.331783 -2258.647949 -188.321487
-49.823982 -2310.808105 -180.346466
-25.858784 -2328.118164 -177.708466
-8.189865 -2208.937988 -195.921463
-15.841784 -2240.157959 -191.148483
-52.829285 -2323.687988 -178.381470
-55.030285 -2304.927979 -181.246475
-20.440184 -2274.167969 -185.951477
-0.884935 -2246.657959 -190.158463
-82.541786 -2318.437988 -179.178467
-40.295284 -2242.038086 -190.858475
-71.412987 -2289.468018 -183.606476
-68.821785 -2294.578125 -182.826477
-84.343987 -2333.197998 -176.921478
-84.302788 -2309.647949 -180.521469
-35.905285 -2210.177979 -195.731461
-38.019485 -2231.548096 -192.463486
-53.892982 -2196.268066 -197.856461
-38.282986 -2232.157959 -192.368484
-70.999985 -2240.848145 -191.040482
-35.417984 -2214.798096 -195.023483
-55.762486 -2226.968018 -193.163467
-61.648285 -2276.548096 -185.581467
-51.825485 -2238.038086 -191.471481
-193.142578 -2266.328125 -184.686478
-118.786583 -2323.818115 -177.618469
-118.023582 -2319.697998 -178.266479
-100.401581 -2324.808105 -177.893478
-95.115288 -2300.877930 -181.673477
-124.462585 -2314.377930 -178.931473
-226.052582 -2312.407959 -176.878479
-101.023582 -2262.028076 -187.478470
-136.489578 -2300.377930 -180.793472
-172.760590 -2299.978027 -180.013474
-209.364578 -2306.578125 -178.156479
-97.049782 -2261.078125 -187.713470
-142.961578 -2258.078125 -187.111465
-96.954781 -2306.647949 -180.748474
-126.019585 -2276.598145 -184.671478
-164.948578 -2269.828125 -184.803467
-146.304581 -2324.278076 -176.911469
-100.242584 -2210.368164 -195.393478
-110.453583 -2241.968018 -190.326462
-91.254982 -2250.838135 -189.413467
-109.660583 -2308.578125 -180.158478
-112.668587 -2264.608154 -186.813477
-93.905983 -2206.008057 -196.206467
-95.358788 -2308.377930 -180.523468
-135.881577 -2259.248047 -187.095474
-98.145981 -2267.218018 -186.750473
-233.195587 -2297.637939 -178.971466
-120.591583 -2234.338135 -191.258469
-89.681282 -2293.677979 -182.901474
-220.425583 -2316.538086 -176.378479
-96.525986 -2262.637939 -187.488480
-142.000580 -2197.528076 -196.316483
-190.749588 -2182.768066 -197.308487
-232.297577 -2257.008057 -185.123474
-195.075577 -2190.637939 -196.018478
-239.272583 -2192.868164 -194.578476
-154.050583 -2182.697998 -198.241470
-241.270584 -2248.998047 -186.101471
-244.173584 -2237.758057 -187.716476
-177.620590 -2232.788086 -190.128464
-157.077591 -2198.008057 -195.866470
-218.000580 -2206.897949 -193.005478
-172.686584 -2198.738037 -195.363480
-210.170578 -2207.887939 -193.051468
-252.024582 -2298.808105 -178.356476
-261.762573 -2242.548096 -186.556473
-158.310577 -2198.157959 -195.811478
-182.729584 -2246.627930 -187.926468
-184.291580 -2181.808105 -197.616470
-195.132584 -2243.968018 -188.013474
-249.072586 -2204.947998 -192.518478
-250.412582 -2197.478027 -193.606461
-216.010590 -2221.348145 -190.886459
-165.006577 -2230.218018 -190.831467
-251.152588 -2285.328125 -180.401474
-202.850586 -2251.528076 -186.686478
-263.299591 -2237.427979 -187.286469
-243.242584 -2293.197998 -179.418472
-150.825577 -2197.167969 -196.148483
-113.478584 -2196.498047 -197.186478
-38.204483 -2188.897949 66.786491
-78.296288 -2182.538086 66.786491
-31.810486 -2186.258057 66.786491
-86.277985 -2162.278076 66.786491
-71.724983 -2191.177979 66.786491
-23.823484 -2180.377930 66.786491
-1.348445 -2169.758057 66.786491
-16.271784 -2174.488037 66.786491
-30.649784 -2154.468018 66.786491
-11.872385 -2166.068115 66.786491
-268.987579 -2122.968018 66.786491
-196.578583 -2137.868164 66.786491
-188.731583 -2141.437988 66.786491
-162.545578 -2159.167969 66.786491
-262.399597 -2153.687988 66.786491
-237.267578 -2153.488037 66.786491
-262.007599 -2144.127930 66.786491
-243.947586 -2161.008057 66.786491
-216.193588 -2155.228027 66.786491
-254.332581 -2133.328125 66.786491
-154.300583 -2179.738037 66.786491
-132.688583 -2170.687988 66.786491
-87.678986 -2179.157959 66.786491
-190.529587 -2179.177979 66.786491
-189.372589 -2162.877930 66.786491
-139.186584 -2178.958008 66.786491
-208.661591 -2176.318115 66.786491
-167.444580 -2164.728027 66.786491
-97.998787 -2183.447998 66.786491
-99.406586 -2173.508057 66.786491
-68.949783 -2200.818115 66.786491
-9.547585 -2200.508057 66.786491
-149.815582 -2190.838135 66.786491
-93.521782 -2334.127930 -95.376465
-134.635590 -2328.748047 -102.471466
-98.524284 -2333.238037 -94.318466
-125.799583 -2331.098145 -110.803467
-186.450577 -2321.018066 -103.558472
-266.024597 -2307.838135 -94.415466
-173.899582 -2323.657959 -109.561478
-14.756585 -2335.108154 -94.725479
-39.374485 -2335.417969 -97.473465
-83.686485 -2336.917969 -110.198471
-66.619987 -2267.248047 17.069027
-80.629784 -2280.417969 6.459026
-68.681786 -2250.947998 30.059029
1.267701 -2212.397949 58.879017
-695.679565 -785.345154 344.773499
-682.454590 -799.828186 349.429504
-676.827576 -813.970154 346.566528
-695.347595 -769.153198 355.019531
-754.824585 -1621.628174 239.894531
-755.619568 -1609.218140 239.823532
-764.712585 -1463.498169 251.313522
-757.967590 -1573.498169 236.641525
-764.952576 -1459.778198 251.268524
-774.452576 -1308.968140 258.541534
-773.604614 -1321.508179 265.091522
-778.687561 -1240.508179 289.311523
-760.942566 -1523.258179 252.221527
-776.469604 -1275.828125 280.819519
-777.099609 -1265.808228 281.378540
-769.419556 -1388.188110 263.689514
-763.227600 -1486.838135 260.971527
-767.067566 -1425.668213 261.684509
-765.494568 -1450.728149 260.751526
-774.519592 -1306.908203 290.143524
-771.052612 -1362.158203 269.628540
-769.662598 -1384.328125 272.676514
-758.164612 -1567.498169 249.164520
-771.157593 -1360.508179 275.784546
-766.204590 -1439.398193 259.741516
-755.809570 -1605.048218 244.921524
-777.954590 -1252.168213 280.131531
-766.324585 -1437.498169 258.633545
-776.974609 -1267.788208 274.656525
-763.829590 -1477.248169 256.054535
-13.272185 -2288.897949 -0.240974
-16.576883 -2295.417969 -5.548470
-66.428986 -2225.937988 48.909027
-83.160980 -2232.667969 43.829025
-62.541782 -2220.008057 53.326527
-75.947983 -2214.377930 57.469028
-2.372515 -2282.478027 -2.213470
0.147335 -2281.917969 -1.828476
-23.404484 -2265.768066 10.769028
-40.994484 -2258.998047 16.169029
-49.000984 -2239.758057 31.654026
-46.157284 -2235.608154 34.866528
-20.922983 -2228.137939 40.354027
-16.809383 -2230.657959 38.396530
-9.081585 -2256.897949 17.576527
-0.157765 -2268.588135 8.311527
-20.495283 -2260.818115 14.516529
-4.671394 -2227.627930 40.679028
-25.048485 -2246.927979 25.531528
-57.044983 -2238.328125 39.074028
-31.113483 -2278.568115 7.191528
-593.092590 -2195.038086 -389.253479
-579.044556 -2199.548096 -369.731445
-581.057556 -2198.917969 -371.283447
-533.624573 -2213.248047 -366.518494
-534.419556 -2212.917969 -375.396484
-520.909607 -2216.998047 -392.112488
-558.389587 -2205.618164 -379.468445
-591.289612 -2195.578125 -389.838501
-596.227600 -2195.657959 -347.053467
-611.607605 -2190.338135 -355.761475
-540.569580 -2214.667969 -321.386475
-582.904602 -2200.748047 -327.126465
-604.312561 -2194.018066 -321.758484
-613.984558 -2189.998047 -344.635498
-575.182556 -2202.118164 -349.401489
-532.362610 -2217.088135 -323.758484
-581.764587 -2199.548096 -356.648499
-553.432556 -2208.278076 -354.053467
-545.684570 -2211.338135 -345.016479
-552.067566 -2208.618164 -354.888489
-582.927612 -2203.407959 -275.121460
-620.702576 -2190.528076 -276.538452
-585.759583 -2202.458008 -274.951477
-594.834595 -2199.498047 -271.791443
-552.157593 -2213.877930 -274.721497
-568.312561 -2208.348145 -275.815491
-535.807556 -2216.687988 -311.755493
-583.549561 -2201.788086 -305.123474
-601.647583 -2195.708008 -308.543457
-530.112610 -2218.608154 -310.630493
-584.494568 -2201.127930 -310.013489
-594.599609 -2197.848145 -310.391479
-579.234558 -2209.488037 -207.156479
-562.214600 -2216.877930 -184.173477
-575.649597 -2211.008057 -204.011459
-600.144592 -2201.518066 -184.718475
-580.099609 -2209.667969 -182.731476
-556.282593 -2219.288086 -183.818466
-624.804565 -2191.318115 -194.443466
-627.369568 -2189.998047 -207.518478
-566.677612 -2215.208008 -178.163467
-568.039612 -2214.167969 -200.288467
-533.132568 -2221.228027 -260.661499
-581.967590 -2206.197998 -242.108475
-557.469604 -2217.238037 -209.776474
-561.347595 -2216.348145 -204.626480
-539.377563 -2219.268066 -258.753479
-559.147583 -2213.238037 -250.568466
-556.794556 -2218.068115 -202.631485
-574.759583 -2207.818115 -251.998459
-572.674561 -2209.897949 -235.748459
-579.052612 -2209.147949 -218.791458
-566.629578 -2210.728027 -250.196487
-618.982605 -2192.828125 -151.931473
-612.539612 -2194.687988 -139.146469
-614.749573 -2194.108154 -144.281479
-586.312561 -2205.937988 -135.523468
-576.014587 -2210.988037 -142.458466
-549.724609 -2222.038086 -163.160477
-560.329590 -2217.728027 -160.886475
-568.314575 -2214.397949 -145.586472
-571.217590 -2213.397949 -174.198471
-582.092590 -2208.947998 -165.368469
-541.469604 -2225.208008 -135.333466
-611.262573 -2192.268066 -116.156479
-630.582581 -2184.427979 -120.043472
-595.289612 -2201.098145 -126.628479
-559.569580 -2216.058105 -122.233475
-554.352600 -2217.468018 -116.910477
-634.617554 -2177.768066 -96.508469
-584.534607 -2200.968018 -98.861465
-591.669556 -2196.568115 -93.821472
-586.682556 -2201.708008 -108.030472
-588.814575 -2191.627930 -56.956474
-610.322571 -2183.127930 -64.203476
-603.792603 -2185.068115 -58.223473
-587.512573 -2190.417969 -46.283470
-625.959595 -2178.858154 -80.831467
-612.517578 -2183.098145 -69.943466
-636.734558 -2173.917969 -80.488480
-591.587585 -2193.298096 -74.246475
-567.872559 -2203.437988 -70.763474
-546.387573 -2214.677979 -79.823471
-546.754578 -2211.248047 -60.418472
-566.887573 -2202.988037 -65.453476
-557.619568 -2205.018066 -52.613472
-590.752563 -2193.118164 -70.936478
-557.777588 -2196.708008 -33.198471
-577.614563 -2184.498047 -31.185974
-630.489563 -2128.098145 -7.765976
-611.937561 -2138.258057 -10.000969
-569.732605 -2158.728027 -13.193474
-633.232605 -2149.437988 -23.830971
-630.307556 -2138.348145 -15.075974
-623.852600 -2158.397949 -27.700974
-550.547607 -2160.098145 -8.788475
-561.692566 -2183.118164 -25.890976
-581.619568 -2171.127930 -24.088470
-575.109558 -2167.147949 -19.868469
-612.399597 -2116.897949 -4.843475
-646.947571 -2113.738037 -4.268471
-626.107605 -2093.708008 -6.035973
-632.197571 -2115.618164 -4.478470
-566.442566 -2135.458008 -4.768471
-569.082581 -2124.127930 -5.378471
-582.309570 -2119.868164 -5.335976
-546.489563 -2128.728027 -5.608475
-605.027588 -2190.798096 -406.843445
-596.539612 -2193.407959 -406.346497
-609.349609 -2189.528076 -406.074463
-599.424561 -2192.708008 -402.885498
-535.442566 -2210.818115 -407.300476
-521.837585 -2213.358154 -409.521484
-582.997559 -2196.028076 -421.592468
-539.984558 -2208.137939 -420.044495
-525.477600 -2212.377930 -425.019470
-574.249573 -2198.677979 -432.837463
-597.032593 -2192.068115 -436.720459
-589.592590 -2193.528076 -438.659485
-533.852600 -2205.718018 -443.478455
-524.172607 -2203.197998 -448.150452
-591.239563 -2186.458008 -450.808472
-542.557556 -2182.488037 -450.197449
-546.937561 -2188.598145 -450.151428
-549.114563 -2168.118164 -450.541443
-588.432556 -2180.758057 -450.869446
-574.449585 -2146.877930 -451.268433
-585.937561 -2146.828125 -451.429443
-558.312561 -2191.417969 -450.261475
-537.232605 -2164.427979 -450.947449
-512.582581 -2125.968018 -454.182434
-514.882568 -2163.588135 -451.761475
-569.397583 -2132.078125 -451.866455
-564.894592 -2125.917969 -452.403442
-536.747559 -2160.268066 -451.222473
-551.464600 -2128.187988 -452.719482
-573.487610 -2118.808105 -452.553467
-558.269592 -2114.468018 -453.454468
-565.844604 -2106.947998 -454.274475
-582.824585 -2078.187988 -458.082458
-533.354614 -2113.038086 -455.081482
-552.019592 -2078.417969 -460.995483
-514.202576 -2119.008057 -455.422485
-547.172607 -2092.937988 -458.134460
-546.364563 -2095.157959 -457.703430
-586.064575 -2058.368164 -460.361450
-559.802612 -2068.338135 -461.636475
-522.364563 -2056.778076 -463.542480
-528.427612 -2062.088135 -463.251465
-526.632568 -2068.048096 -463.337463
-629.219604 -2182.868164 -418.054443
-624.592590 -2184.427979 -414.551453
-635.799561 -2183.038086 -369.548462
-618.639587 -2187.627930 -375.398499
-636.024597 -2183.978027 -329.966492
-625.749573 -2186.667969 -339.026489
-644.772583 -2182.488037 -294.773499
-640.159607 -2184.318115 -280.536499
-627.769592 -2187.127930 -305.451477
-660.897583 -2179.228027 -196.608475
-657.452576 -2179.738037 -266.473450
-653.187561 -2181.627930 -193.473465
-653.777588 -2181.578125 -180.641479
-636.252563 -2186.598145 -216.326462
-640.857605 -2184.978027 -234.648483
-668.432556 -2171.018066 -131.881470
-662.234558 -2173.657959 -133.853470
-658.837585 -2177.998047 -158.618469
-639.634583 -2183.377930 -144.766479
-643.652588 -2183.808105 -164.350479
-660.232605 -2168.298096 -103.596466
-646.672607 -2173.877930 -102.658478
-682.887573 -2139.828125 -38.423470
-657.722595 -2159.947998 -58.081474
-656.829590 -2156.018066 -39.131470
-664.867554 -2154.018066 -51.171471
-657.287598 -2163.118164 -70.913467
-675.102600 -2143.197998 -34.473473
-689.247559 -2095.268066 -7.225975
-677.409607 -2102.308105 -6.805969
-670.489563 -2105.937988 -6.408470
-666.137573 -2122.548096 -16.203476
-647.469604 -2141.118164 -21.995972
-655.039612 -2133.417969 -19.370972
-685.322571 -2067.828125 -5.770973
-678.449585 -2090.808105 -4.538475
-665.627563 -2079.137939 -5.815971
-650.889587 -2088.598145 -5.763474
-630.372559 -2181.927979 -429.208496
-608.359558 -2188.778076 -430.751465
-604.179565 -2187.447998 -445.421448
-620.579590 -2182.377930 -451.276428
-622.319580 -2110.667969 -451.547485
-602.747559 -2137.058105 -451.750427
-602.802612 -2161.278076 -451.293457
-616.859558 -2072.248047 -456.757446
-610.329590 -2068.187988 -457.940430
-812.752563 -2042.508179 -124.163467
-779.709595 -2061.748047 -125.231476
-774.669556 -646.073181 292.851532
-744.272583 -608.020142 327.783508
-790.492554 -645.093140 293.751526
-775.897583 -629.913147 307.688538
-745.232605 -613.158142 323.068542
-761.159607 -625.618164 311.631531
-749.477600 -622.860168 314.161530
-770.689575 -625.465149 311.771545
-752.167603 -629.803162 307.789520
-800.797607 -616.123169 320.349548
-770.524597 -612.263184 323.891541
-762.349609 -604.368164 331.138550
-801.342590 -627.395142 309.998535
-808.147583 -602.640198 332.723511
-816.202576 -606.153198 329.498535
-767.117554 -612.340149 323.818542
-764.184570 -669.443176 270.376526
-745.104614 -666.403198 273.416534
-776.447571 -681.555176 258.263550
-846.067566 -696.190186 243.628525
-791.037598 -674.270142 265.548523
-752.762573 -675.453186 264.366516
-801.807556 -677.668152 262.151550
-834.369568 -682.233154 257.586548
-842.567566 -672.985168 266.833527
-825.254578 -669.783142 270.036530
-840.387573 -679.205139 260.613525
-813.262573 -677.045166 262.774536
-723.719604 -724.523193 186.326538
-674.594604 -726.070190 183.188538
-805.954590 -724.400146 186.576538
-839.729614 -728.990173 177.263519
-686.254578 -724.558167 186.256531
-705.479614 -717.808167 199.948532
-834.112610 -725.988159 183.353531
-755.129578 -710.575195 214.618530
-756.857605 -721.573181 192.308533
-769.334595 -712.043152 211.641525
-739.464600 -706.330139 223.229523
-773.394592 -709.300171 217.201523
-759.284607 -717.943176 199.671524
-747.042603 -721.358154 192.746521
-770.947571 -708.378174 219.073532
-809.937561 -728.105164 179.061523
-744.127563 -716.400146 202.803528
-808.469604 -709.310181 217.186523
-829.004578 -696.650146 242.864532
-778.207581 -702.763184 230.466522
-816.039612 -706.400146 223.086533
-850.702576 -721.793152 191.863525
-771.657593 -699.635193 236.808533
-852.909607 -709.583191 216.631531
-808.827576 -711.230164 213.288528
-838.152588 -713.353149 208.983521
-686.574585 -737.343140 140.181519
-710.144592 -736.545166 143.768921
-737.492554 -751.250183 77.609055
-715.549561 -737.618164 138.944031
-713.699585 -746.015198 101.166527
-719.319580 -744.853149 106.399033
-698.194580 -741.925171 119.564026
-718.309570 -747.320190 95.296524
-720.029602 -749.883179 83.764030
-796.819580 -747.788147 93.186523
-820.147583 -751.565186 76.196518
-693.692566 -742.843140 115.434029
-807.099609 -751.215149 77.774025
-731.814575 -748.343140 90.694031
-733.432556 -744.685181 107.146530
-760.802612 -743.428162 112.801529
-831.547607 -729.193176 176.846527
-761.517578 -729.310181 176.313538
-808.494568 -735.433167 148.771530
-730.427612 -734.083191 154.841522
-858.867554 -742.405151 117.406525
-831.604614 -745.985168 101.304031
-813.229614 -739.983154 128.301529
-830.014587 -741.713196 120.526527
-704.774597 -732.138184 163.596527
-859.999573 -750.798157 79.649025
-825.709595 -733.430176 157.778931
-685.637573 -730.890198 169.211517
-814.709595 -731.330139 167.231537
-699.787598 -731.838196 164.941528
-851.469604 -738.798157 133.639038
-772.544556 -731.553162 166.226532
-770.022583 -733.838196 155.941528
-765.537598 -736.878174 142.274017
-707.482605 -734.910156 151.121521
-792.582581 -740.805176 124.606529
-697.587585 -731.358154 167.099030
-726.022583 -731.688171 165.621521
-783.642578 -740.525146 125.861526
-862.177612 -741.343140 122.186523
-742.644592 -750.515198 24.916527
-790.339600 -750.445190 22.384029
-800.224609 -750.220154 14.241528
-805.579590 -749.608154 -7.863571
-752.934570 -751.028198 43.436527
-732.494568 -751.250183 51.384026
-754.052612 -749.800171 -0.880974
-775.667603 -749.463196 -13.095970
-828.184570 -749.598145 -8.226074
-827.864563 -749.500183 -11.685974
-801.817566 -750.293152 16.894028
-736.192566 -751.238159 50.971527
-740.569580 -751.388184 56.381527
-730.914612 -751.130188 47.106529
-790.697571 -751.195190 49.436527
-836.919556 -751.635193 65.351486
-782.592590 -751.683167 67.066521
-842.684570 -749.780151 -1.605972
-793.487610 -751.700195 67.666489
-836.442566 -750.528198 25.396526
-770.019592 -751.193176 49.306526
-757.004578 -751.465149 59.141529
-740.462585 -751.860168 73.396530
-817.544556 -750.250183 15.309029
-805.014587 -750.633179 29.106529
-814.224609 -750.665161 30.331528
-855.557556 -750.665161 30.354027
-809.837585 -751.863159 73.524025
-777.659607 -744.683167 -105.741470
-734.872559 -747.150146 -58.563469
-826.477600 -743.373169 -130.761475
-678.834595 -746.375183 -73.381470
-726.304565 -745.433167 -91.418472
-741.392578 -745.548157 -89.225479
-768.654602 -743.293152 -132.273468
-757.452576 -744.510193 -109.036469
-667.669556 -745.938171 -81.751465
-849.092590 -742.960144 -138.631470
-796.479614 -743.395142 -130.351471
-700.854614 -745.438171 -91.321472
-664.552612 -743.395142 -130.318466
-729.222595 -746.470154 -71.573471
-721.842590 -745.180176 -96.216476
-679.164612 -745.893188 -82.613480
-693.037598 -744.345154 -112.205475
-795.939575 -745.200195 -95.863480
-737.812561 -745.210144 -95.665466
-766.562561 -743.375183 -130.728470
-638.809570 -742.923157 -139.388474
-717.764587 -747.880188 -44.621475
-778.974609 -746.168152 -77.338470
-700.767578 -745.040161 -98.905472
-718.892578 -748.025146 -41.868469
-722.087585 -744.680176 -105.773468
-749.764587 -747.728149 -47.563469
-734.832581 -745.143188 -96.953476
-722.379578 -743.655151 -125.381470
-777.027588 -743.423157 -129.836472
-710.422607 -745.535156 -89.465469
-854.622559 -743.788147 -122.845474
-757.217590 -748.593140 -30.993469
-819.137573 -749.133179 -20.708473
-857.799561 -748.215149 -38.246475
-855.547607 -748.780151 -27.450974
-851.434570 -749.065186 -21.995972
-748.347595 -749.338196 -16.790970
-840.959595 -748.923157 -24.700974
-752.322571 -748.715149 -28.663475
-831.177612 -744.835144 -102.823471
-785.079590 -748.320190 -36.236473
-798.954590 -749.305176 -17.405975
-775.772583 -748.555176 -31.745972
-853.094604 -747.013184 -61.220474
-822.059570 -746.085144 -78.911469
-808.552612 -745.298157 -93.988480
-810.879578 -747.995178 -42.426476
-833.579590 -744.685181 -105.708466
-840.572571 -744.083191 -117.183472
-682.069580 -731.173157 -271.010498
-676.724609 -735.195190 -226.013474
-625.302612 -738.570190 -188.258469
-754.147583 -734.530151 -233.445480
-648.379578 -740.285156 -169.071472
-777.164612 -733.005188 -250.508469
-621.764587 -738.263184 -191.691483
-711.812561 -737.678162 -198.236465
-741.084595 -735.573181 -221.771469
-680.442566 -738.548157 -188.496475
-719.469604 -736.735168 -208.788467
-619.989563 -732.005188 -261.708496
-798.192566 -732.755188 -253.301468
-665.202576 -737.148193 -204.160477
-696.189575 -733.063171 -249.878464
-691.954590 -736.493164 -211.493484
-679.352600 -737.688171 -198.128464
-649.097595 -738.500183 -189.040482
-642.189575 -733.450195 -245.526474
-643.124573 -736.143188 -215.421463
-675.254578 -735.540161 -222.136459
-678.767578 -736.928162 -206.620468
-739.184570 -735.738159 -219.943466
-643.277588 -735.113159 -226.933487
-726.052612 -736.598145 -210.328476
-676.974609 -734.183167 -237.336472
-696.912598 -734.485168 -233.938461
-632.909607 -739.883179 -173.581467
-788.097595 -734.035156 -238.976486
-665.429565 -738.263184 -191.688461
-652.482605 -735.628174 -221.171463
-743.427612 -734.835144 -230.046463
-622.892578 -735.513184 -222.453476
-752.029602 -735.015198 -228.023483
-783.902588 -735.950195 -217.551468
-796.399597 -739.245178 -180.693466
-834.859558 -739.558167 -177.208466
-854.432556 -740.355164 -168.285477
-754.679565 -740.870178 -162.531479
-814.364563 -740.675171 -164.706467
-735.169556 -741.443176 -156.106476
-684.822571 -740.675171 -164.691467
-720.824585 -741.750183 -152.683472
-770.277588 -735.595154 -221.538467
-634.577576 -742.510193 -144.186478
-787.877563 -741.160156 -159.263474
-839.644592 -741.310181 -157.613480
-701.939575 -742.568176 -143.543472
-690.437561 -742.500183 -144.281479
-748.787598 -738.490173 -189.148483
-675.137573 -740.388184 -167.913467
-810.024597 -742.470154 -144.613480
-767.199585 -742.380188 -145.623474
-848.754578 -731.318176 -269.381470
-794.429565 -735.183167 -226.148483
-829.197571 -740.713196 -164.283478
-764.022583 -736.248169 -214.238480
-740.314575 -737.055176 -205.193466
-852.694580 -733.103149 -249.410477
-700.184570 -742.798157 -140.966476
-805.844604 -735.233154 -225.601486
-717.037598 -737.960144 -195.076462
-827.447571 -741.485168 -155.648468
-706.384583 -739.735168 -175.206467
-840.139587 -740.393188 -167.858475
-851.049561 -742.073181 -149.061478
-767.792603 -739.298157 -180.108475
-815.924561 -738.398193 -190.185471
-810.104614 -734.938171 -228.878464
-832.002563 -730.430176 -290.698486
-693.744568 -730.465149 -289.393494
-711.604614 -730.678162 -281.648499
-642.509583 -730.653198 -282.606445
-633.954590 -730.495178 -288.286499
-852.419556 -730.658142 -282.403442
-834.352600 -730.735168 -279.591492
-822.047607 -730.638184 -283.146484
-826.519592 -730.758179 -278.746460
-672.769592 -729.413147 -301.135498
-665.284607 -729.853149 -297.228455
-824.289612 -728.723145 -307.241455
-673.932556 -728.965149 -305.076477
-806.134583 -729.678162 -298.783447
-790.079590 -729.538147 -300.018494
-827.614563 -730.288147 -293.383484
-834.767578 -729.228149 -302.768494
-797.829590 -728.633179 -308.036499
-652.967590 -720.873169 -318.108459
-715.069580 -715.568176 -323.296448
-713.289612 -713.473145 -325.343445
-664.552612 -710.430176 -328.321472
-665.752563 -720.718140 -318.258484
-621.719604 -716.310181 -322.570496
-692.284607 -715.620178 -323.246460
-663.819580 -709.140198 -329.583496
-749.107605 -721.743164 -317.256470
-822.822571 -714.188171 -324.646484
-813.012573 -727.163147 -311.956482
-739.322571 -720.560181 -318.413452
-838.212585 -725.095154 -313.976501
-837.079590 -720.185181 -318.778442
-632.422607 -728.120178 -311.016479
-637.202576 -700.430176 -337.315491
-688.747559 -700.333191 -337.398499
-638.319580 -697.098145 -340.178467
-629.249573 -696.560181 -340.641479
-717.817566 -706.423157 -332.168457
-785.047607 -705.310181 -333.123474
-759.624573 -704.985168 -333.401489
-732.607605 -705.208191 -333.211487
-784.219604 -700.333191 -337.398499
-621.217590 -681.955139 -353.188477
-663.659607 -690.053162 -346.231445
-660.499573 -688.943176 -347.186462
-681.347595 -684.165161 -351.288452
-812.237610 -689.920166 -346.343445
-804.757568 -692.913147 -343.776489
-779.669556 -684.518188 -350.986450
-802.559570 -690.205139 -346.098450
-747.907593 -671.340149 -363.088501
-658.532593 -678.580139 -356.288452
-634.924561 -672.830139 -361.688477
-624.599609 -679.248169 -355.660461
-811.762573 -673.683167 -360.888489
-693.092590 -678.783142 -356.098450
-734.749573 -675.143188 -359.516479
-821.142578 -675.190186 -359.470459
-706.972595 280.899841 -342.101501
-687.929565 278.421844 -342.568481
-652.849609 279.431824 -342.378479
-659.599609 278.154846 -342.618469
-706.834595 277.779846 -342.688477
-790.829590 294.229828 -339.586487
-683.322571 285.631836 -341.208496
-674.867554 292.504822 -339.911499
-673.802612 287.926819 -340.776489
-747.669556 266.994843 -344.723450
-758.344604 268.886841 -344.366455
-682.907593 261.613831 -345.738464
-807.412598 281.766846 -341.938477
-703.527588 265.039825 -345.093445
-740.509583 265.361816 -345.031494
-736.329590 266.999817 -344.723450
-755.569580 263.553833 -345.373474
-755.117554 280.371826 -342.201477
-622.564575 341.594818 -329.681458
-718.059570 356.546844 -326.538452
-672.109558 351.836823 -327.528442
-711.757568 354.501831 -326.968445
-708.492554 356.461823 -326.556458
-733.282593 334.659821 -331.135498
-658.514587 336.346832 -330.781494
-732.297607 354.586823 -326.951477
-633.857605 305.969818 -337.163452
-675.572571 331.534821 -331.793457
-772.942566 346.539825 -328.641479
-651.914612 351.361816 -327.628479
-663.134583 354.376831 -326.996460
-676.154602 330.494843 -332.011475
-713.669556 347.244843 -328.493469
-732.267578 310.784821 -336.151489
-786.934570 309.811829 -336.356445
-824.419556 334.939819 -331.078491
-734.514587 311.129822 -336.078491
-804.707581 322.181824 -333.756470
-718.764587 315.796844 -335.098450
-746.664612 317.726837 -334.693481
-785.189575 296.634827 -339.123474
-736.279602 305.446838 -337.273499
-784.639587 324.751831 -333.218445
-811.592590 324.266846 -333.318481
-811.059570 314.891846 -335.288452
-795.539612 339.154846 -330.191467
-834.034607 340.431824 -329.923462
-818.544556 402.294830 -311.891479
-626.074585 363.166840 -324.443481
-629.162598 370.784821 -321.998474
-756.584595 401.546844 -312.131470
-641.427612 397.176819 -313.533447
-632.729614 392.479828 -315.040466
-672.074585 399.686829 -312.728455
-722.314575 399.774841 -312.701477
-687.552612 385.026825 -317.431458
-663.912598 388.246826 -316.398499
-769.067566 397.199829 -313.526489
-702.922607 397.336823 -313.483459
-706.609558 402.871826 -311.706482
-801.814575 371.674835 -321.713501
-736.482605 364.869843 -323.896484
-769.069580 379.159821 -319.313477
-695.724609 362.919830 -324.523499
-684.857605 358.371826 -325.981445
-838.167603 361.491821 -324.981445
-737.337585 363.489838 -324.338501
-775.439575 362.314819 -324.716492
-799.259583 369.794830 -322.316467
-782.992554 387.304840 -316.701477
-828.704590 377.896820 -319.718445
-692.032593 357.959839 -326.113464
-674.602600 368.639832 -322.688477
-623.142578 447.771820 -286.446472
-660.737610 439.466827 -291.268494
-648.704590 450.411835 -284.910461
-699.599609 425.829834 -299.188477
-697.037598 453.684845 -283.011475
-639.579590 415.619843 -305.118469
-794.397583 444.914825 -288.103455
-728.504578 431.941833 -295.638489
-760.097595 447.811829 -286.421448
-714.664612 453.301819 -283.233459
-722.717590 437.669830 -292.311462
-637.154602 447.251831 -286.746460
-751.419556 441.654846 -289.998474
-687.617554 428.896820 -297.406494
-766.197571 420.931824 -302.033447
-710.387573 414.671844 -305.668457
-828.982605 423.659821 -300.448486
-695.254578 416.571838 -304.566467
-820.144592 439.714844 -291.126465
-787.229614 420.759827 -302.133484
-853.932556 444.626831 -288.271484
-820.514587 431.719818 -295.768494
-787.547607 433.709839 -294.611450
-750.504578 428.814819 -297.456482
-843.082581 421.729828 -301.570496
-795.607605 439.999817 -290.958496
-783.544556 429.644836 -296.973450
-815.869568 441.284821 -290.213501
-629.449585 460.756836 -278.376465
-647.024597 456.046844 -281.561462
-803.547607 457.384827 -280.656494
-785.139587 457.589844 -280.518494
-747.944580 488.226837 -259.808472
-623.539612 469.651825 -272.363464
-708.807556 480.779846 -264.843445
-624.917603 473.296844 -269.901489
-633.724609 483.899841 -262.733459
-855.594604 494.086823 -255.846481
-698.647583 475.014832 -268.738464
-776.334595 487.664825 -260.188477
-831.069580 492.891846 -256.653442
-641.474609 492.176819 -257.138489
-651.867554 490.739838 -258.108459
-852.767578 487.879822 -260.043457
-858.984558 472.764832 -270.261475
-842.344604 465.331818 -275.283447
-749.234558 471.196838 -271.318481
-669.767578 466.256836 -274.658447
-642.717590 463.779846 -276.333496
-806.609558 487.244843 -260.473450
-744.559570 462.639832 -277.103455
-801.029602 482.521820 -263.666443
-718.627563 469.866821 -272.218445
-661.627563 522.156860 -230.388474
-626.602600 530.064819 -223.183487
-627.582581 529.796814 -223.426468
-722.789612 532.244812 -221.195480
-714.482605 512.934814 -238.790482
-620.417603 530.994812 -222.336472
-695.057556 514.184814 -237.651474
-700.822571 511.184814 -240.386459
-626.359558 509.856812 -241.596481
-626.882568 533.044861 -220.468460
-790.637573 531.376831 -221.986465
-704.122559 523.709839 -228.973465
-625.699585 506.569824 -244.591476
-648.769592 517.886841 -234.278458
-711.052612 526.511841 -226.421463
-785.209595 510.051819 -241.418472
-840.172607 501.066833 -249.603470
-709.664612 502.479828 -248.318466
-726.517578 496.286835 -253.961472
-813.972595 497.294830 -253.041458
-848.969604 527.296814 -225.706467
-720.134583 505.594818 -245.478470
-769.544556 519.479858 -232.828476
-729.444580 506.541809 -244.616470
-835.902588 502.364838 -248.423477
-769.082581 509.186829 -242.206467
-748.234558 505.976837 -245.130478
-804.329590 502.539825 -248.263474
-748.322571 510.501831 -241.008469
-721.452576 587.951843 -145.530472
-737.097595 591.931824 -140.001465
-752.177612 618.936829 -102.468475
-693.562561 606.776855 -119.366470
-619.044556 557.631836 -187.673477
-775.144592 613.526855 -109.983475
-622.522583 546.689819 -202.883469
-834.752563 624.461853 -94.788467
-704.177612 598.729858 -130.553467
-666.542603 582.916809 -152.531479
-839.187561 619.549805 -101.613480
-697.012573 596.334839 -133.881470
-785.142578 618.731812 -102.751465
-694.632568 612.041809 -112.048477
-752.599609 590.576843 -141.883469
-634.464600 611.061829 -113.410477
-714.582581 601.596802 -126.568466
-756.559570 603.161804 -124.393478
-722.532593 618.309814 -103.338470
-647.599609 565.369812 -176.918472
-668.454590 602.161804 -125.783478
-684.762573 574.541809 -164.171478
-781.982605 622.706848 -97.225479
-675.472595 610.176819 -114.641479
-819.872559 624.459839 -94.790466
-642.702576 608.021851 -117.636475
-650.209595 582.501831 -153.108475
-678.367554 619.229858 -102.058472
-661.569580 587.644836 -145.961472
-686.789612 582.841858 -152.636475
-774.322571 608.159851 -117.443466
-700.179565 572.274841 -167.323471
-737.172607 599.271851 -129.798477
-788.517578 612.006836 -112.098465
-669.287598 560.471802 -183.725479
-685.649597 567.274841 -174.271469
-734.637573 626.411804 -92.076477
-716.894592 602.331848 -125.546478
-787.444580 600.936829 -127.486465
-732.122559 583.791809 -151.313477
-691.642578 607.309814 -118.626465
-731.652588 553.076843 -194.006485
-639.544556 536.351807 -217.248459
-823.799561 567.251831 -174.301468
-663.152588 537.749817 -215.308487
-729.537598 547.214844 -202.153458
-815.454590 570.046814 -170.418472
-858.854614 553.159851 -193.888474
-808.237610 556.169861 -189.706467
-811.497559 604.641846 -122.336472
-804.464600 566.551819 -175.276474
-802.384583 581.969849 -153.848465
-816.322571 555.846802 -190.155472
-774.887573 572.786804 -166.611465
-823.842590 580.894836 -155.341476
-783.532593 590.774841 -141.608475
-838.537598 571.906860 -167.833466
-788.769592 596.029846 -134.306473
-791.047607 555.319824 -190.888474
-639.892578 536.451843 -217.111465
-857.239563 619.874817 -101.163467
-703.119568 551.649841 -195.988480
-827.367554 597.991821 -131.578476
-743.217590 559.046814 -185.708466
-852.809570 598.111816 -131.410477
-807.807556 557.544861 -187.793472
-694.292603 552.646851 -194.601486
-789.567566 583.836853 -151.250473
-819.642578 540.014832 -212.158463
-790.077576 581.301819 -154.776474
-800.279602 586.444824 -147.626465
-824.822571 575.669861 -162.603470
-781.319580 561.021851 -182.961472
-834.012573 581.014832 -155.176468
-834.904602 613.404846 -110.156479
-772.402588 592.856812 -138.713470
-832.852600 566.941833 -174.736465
-724.724609 570.726807 -169.473465
-843.699585 611.176819 -113.253479
-743.782593 581.964844 -153.853470
-850.442566 594.326843 -136.673477
-810.712585 596.341858 -133.871475
-711.834595 666.314819 22.416527
-787.267578 666.531860 23.051529
-726.319580 670.796814 35.459026
-723.452576 670.266846 33.916527
-714.304565 657.606812 -2.918472
-769.144592 669.664856 32.159027
-710.764587 662.421814 11.088928
-719.544556 648.701843 -28.820969
-705.724609 644.334839 -41.528473
-759.472595 665.184814 19.129028
-745.452576 668.574829 28.989029
-765.824585 666.349854 22.514027
-666.819580 638.589844 -58.246475
-715.064575 656.549805 -5.993469
-721.657593 650.446838 -23.745972
-669.162598 638.481812 -58.556473
-704.987610 664.326843 16.631527
-677.999573 652.689819 -17.221069
-647.444580 633.384827 -73.388474
-733.762573 670.571838 34.801529
-670.559570 641.644836 -49.356476
-760.582581 656.981812 -4.733475
-727.384583 638.189819 -59.408470
-746.289612 642.361816 -47.271469
-852.342590 647.156860 -33.318474
-734.104614 645.574829 -37.923470
-822.192566 631.846802 -77.861465
-795.847595 629.999817 -83.238480
-826.922607 638.259827 -59.203476
-822.534607 655.949829 -7.738472
-809.879578 637.104858 -62.563477
-837.684570 649.846802 -25.495972
-740.737610 643.804810 -43.073471
-838.167603 633.079834 -74.278473
-778.132568 642.651855 -46.423470
-843.349609 645.906860 -36.953476
-848.214600 650.749817 -22.868469
-722.904602 630.941833 -80.493469
-784.012573 631.091858 -80.053467
-848.789612 651.516846 -20.638474
-775.997559 651.361816 -21.083473
-732.124573 645.639832 -37.736473
-769.694580 643.224854 -44.763474
-691.219604 637.416809 -61.658478
-747.504578 633.284851 -73.681473
-813.299561 638.986816 -57.085472
-801.367554 643.191833 -44.851471
-809.637573 642.601807 -46.568474
-851.419556 664.394836 16.829029
-776.097595 641.346802 -50.218475
-808.547607 629.129822 -85.768478
-794.952576 644.514832 -41.006470
-811.807556 661.041809 7.078926
-810.877563 638.901855 -57.333473
-754.439575 634.984802 -68.731476
-854.187561 662.031860 9.956528
-729.109558 631.849854 -77.850479
-742.242554 690.041809 127.626526
-786.854614 687.109802 113.299026
-732.749573 688.804810 121.578926
-741.852600 695.079834 152.256531
-771.762573 685.789856 106.849030
-754.514587 677.919861 68.374008
-819.987610 692.919861 141.696533
-792.709595 694.251831 148.206528
-800.454590 686.514832 110.391525
-842.484558 693.039856 142.289032
-814.699585 694.486816 149.359024
-806.822571 692.859802 141.401428
-780.962585 692.836853 141.294037
-761.014587 689.001831 122.551529
-829.192566 694.081848 147.376526
-729.157593 695.694824 155.264038
-841.174561 695.414856 153.891525
-777.772583 692.416809 139.239029
-779.402588 682.339844 89.979027
-804.192566 687.281860 114.136528
-781.372559 674.529846 51.809029
-832.542603 675.079834 54.501526
-838.579590 675.134827 54.771526
-843.682556 685.659851 106.216431
-773.757568 676.196838 59.961529
-861.662598 672.269836 40.759026
-803.602600 682.451843 90.536530
-796.467590 676.909851 63.441517
-812.639587 673.861816 48.546528
-783.614563 678.449829 70.974045
-851.029602 689.474854 124.859024
-780.159607 675.661804 57.341427
-864.042603 676.516846 61.516529
-864.839600 678.916809 73.249008
-848.882568 692.034851 137.376526
-853.349609 679.911804 78.113998
-840.732605 675.464844 56.376526
-792.487610 671.879822 38.859028
-805.407593 673.246826 45.536530
-798.204590 674.489807 51.616528
-850.279602 707.984802 244.386520
-765.244568 701.326843 195.211517
-707.739563 698.811829 176.633530
-681.667603 702.781860 205.961533
-764.567566 703.784851 213.366531
-765.604614 703.286804 209.689529
-805.622559 704.341858 217.483521
-757.814575 706.924805 236.548523
-675.144592 708.036804 244.769531
-700.897583 704.446838 218.243530
-701.772583 702.211853 201.733521
-776.609558 703.606812 212.038528
-773.802612 707.681824 242.156525
-684.657593 706.529846 233.626526
-723.267578 705.906860 229.041534
-672.627563 706.079834 230.306534
-761.569580 702.639832 204.906525
-725.264587 696.759827 161.466522
-725.314575 699.444824 181.309525
-767.912598 701.739807 198.243530
-836.517578 702.651855 204.988525
-799.279602 699.106812 178.808533
-854.982605 697.849854 169.516525
-789.652588 696.614807 160.399017
-793.752563 697.519836 167.071533
-791.122559 698.261841 172.556519
-780.939575 697.319824 165.601532
-824.914612 705.256836 224.228531
-853.172607 706.286804 231.834534
-830.884583 700.971802 192.591522
-764.447571 696.856812 162.189026
-796.744568 701.409851 195.816528
-766.662598 699.596802 182.423523
-752.572571 698.224854 172.286530
-809.767578 699.501831 181.721527
-753.187561 715.976807 297.318542
-803.927612 718.861816 316.363525
-775.612610 719.951843 323.563538
-745.547607 715.399841 293.491516
-715.344604 715.746826 295.796509
-798.804565 719.689819 321.828522
-794.177612 719.189819 318.523529
-841.567566 712.919861 277.126526
-715.107605 710.239807 259.424530
-848.094604 708.981812 251.109528
-823.934570 712.729858 275.871521
-793.732605 714.549805 287.888550
-787.174561 717.526855 307.553528
-673.072571 709.746826 256.161530
-770.427612 708.749817 249.581528
-776.282593 712.524841 274.506531
-749.544556 715.021851 291.001526
-814.267578 709.056824 251.606522
-822.659607 712.069824 271.511536
-813.482605 711.726807 269.248535
-735.132568 712.661804 275.423523
-835.287598 713.644836 281.908508
-826.404602 716.089844 298.056519
-743.429565 712.201843 272.378540
-823.382568 716.929810 303.598511
-791.637573 721.991821 356.233521
-780.484558 721.921814 355.026550
-799.669556 721.606812 349.644531
-770.684570 720.726807 334.479553
-776.362610 720.891846 337.314514
-751.934570 728.251831 394.269531
-777.892578 724.189819 370.741516
-774.427612 722.901855 363.291504
-811.804565 -110.733162 356.746521
-819.054565 -117.729164 343.883545
-812.057556 -33.158863 355.361511
-828.162598 -307.763184 329.903503
-800.182556 125.268837 374.661499
-820.267578 -221.055176 342.961548
-822.424561 -134.284164 338.063538
-805.752563 66.564140 365.421509
-802.619568 88.346642 370.753540
-815.704590 -160.316162 350.376526
-818.549561 -283.353180 346.778503
-818.497559 -117.072159 344.869507
-834.037598 -286.325165 319.156525
-811.769592 -237.333176 358.328552
-809.552612 -38.606564 359.901550
-831.369568 -285.225159 323.906525
-818.464600 -130.215164 345.086548
-810.162598 -21.338364 358.601501
-817.829590 -135.157166 346.281555
-821.307556 -168.939163 340.478516
-818.222595 -203.829163 346.403503
-811.004578 -167.847168 358.861511
-832.649597 -290.933167 321.689514
-823.707581 -140.015167 335.844543
-808.759583 -42.355865 361.359558
-810.422607 -160.380173 359.811523
-806.927612 -8.974454 364.233521
-798.904602 143.293839 376.726501
-807.047607 -101.866364 365.134521
-826.094604 -106.217163 333.493530
-824.047607 -101.622063 336.283508
-826.079590 -29.017063 335.673523
-823.644592 134.965836 343.431519
-818.022583 143.293839 350.973511
-814.974609 166.770828 355.593506
-808.199585 134.394836 363.493530
-821.794556 52.496933 343.526550
-814.247559 30.721134 352.729553
-833.429565 -179.082169 321.918518
-835.077576 -244.638168 317.941528
-829.312561 -11.436834 331.966553
-814.484558 10.570735 351.856506
-819.909607 -29.340565 343.686523
-815.104614 -1.017354 350.726501
-797.994568 178.622833 377.996521
-835.152588 -260.283173 317.406525
-820.744568 66.575638 345.286499
-807.312561 160.010834 365.363525
-827.624573 -90.260864 331.951538
-817.739563 107.344841 350.333557
-826.679565 82.848442 338.029541
-827.707581 32.267235 335.276550
-820.514587 -58.515366 342.081543
-811.162598 44.832634 357.133545
-851.597595 -268.590179 279.051514
-839.934570 -298.818176 308.358521
-836.624573 -173.984161 315.983521
-848.187561 -219.111176 287.316528
-848.792603 -230.697174 285.863525
-842.839600 -188.295166 300.519531
-847.334595 -193.492172 289.313538
-847.289612 -286.268158 289.911530
-849.919556 -215.910172 282.968506
-850.034607 -271.678162 282.971527
-847.249573 -270.888184 289.928528
-834.394592 13.423837 320.573547
-842.217590 -86.291061 301.543518
-832.114563 -54.898563 326.631531
-849.797607 -215.031174 283.269531
-841.897583 -265.818176 303.283508
-833.832581 -43.995365 322.281525
-848.072571 -184.011169 287.416534
-841.684570 -238.915176 303.674530
-840.849609 -82.960564 304.941528
-841.652588 -259.643158 303.863525
-836.184570 -34.645363 316.349548
-844.677612 -283.443176 296.423523
-842.229614 -150.677170 301.848511
-845.999573 -260.460175 292.998535
-830.612610 70.121635 329.736511
-836.522583 -195.554169 316.349548
-845.279602 -44.530064 294.986511
-843.167603 49.905933 300.691528
-852.069580 -204.437164 278.056519
-845.737610 -133.681168 293.073547
-852.857605 -142.589172 276.883545
-835.899597 129.452835 317.908508
-841.432556 -13.281084 303.993530
-842.327576 118.761841 303.266541
-832.377563 111.875839 325.703552
-849.129578 -90.548859 285.828522
-844.622559 -111.834160 295.808533
-832.562561 147.575836 325.636536
-840.964600 2.099866 305.201538
-834.857605 46.205635 319.449524
-849.279602 -167.786163 284.728516
-837.439575 175.855835 314.881531
-840.002563 -24.915565 307.116516
-838.342590 6.252536 311.171509
-837.249573 102.486839 314.593506
-843.644592 -17.130363 298.951538
-853.002563 -131.069168 276.671509
-856.912598 -313.070160 266.036530
-843.252563 -14.220834 299.866516
-835.497559 34.632034 317.888550
-846.197571 116.148842 294.491516
-839.352600 -18.601864 308.646545
-846.109558 7.811235 293.626526
-854.107605 -247.838165 273.023529
-850.559570 -128.331161 282.219543
-853.392578 -112.288162 274.769531
-861.672607 -184.950165 239.141525
-853.199585 -51.735065 273.186523
-865.604614 -273.643158 224.433533
-850.209595 17.436634 284.298523
-867.439575 -241.435165 214.568527
-855.957581 -205.273163 266.611511
-847.952576 145.917831 289.576538
-857.842590 -185.371170 257.016541
-855.582581 -170.554169 266.946533
-856.189575 -8.325204 257.478516
-864.694580 -195.241165 225.481522
-859.082581 -145.941162 249.621521
-858.477600 -53.513367 248.668533
-855.752563 -71.561058 262.098511
-865.424561 -222.374176 223.181534
-864.899597 -191.048172 224.346527
-857.787598 -66.417862 252.414520
-847.757568 149.996826 290.313538
-857.552612 -197.642166 258.861511
-860.157593 -189.895172 246.409531
-857.252563 -239.980164 261.989532
-852.109558 -2.434584 276.256531
-849.464600 62.327435 285.941528
-864.979614 -294.835175 228.211533
-861.267578 -127.254158 238.671524
-848.697571 136.596832 286.481506
-865.184570 -306.013184 227.713531
-856.922607 -65.290359 256.394531
-854.579590 -146.361176 270.628540
-869.159607 -287.543182 208.428528
-857.867554 -219.588165 258.288513
-856.409607 -219.427170 265.078522
-861.067566 -113.266159 239.039520
-856.967590 -150.649170 259.673523
-867.034607 -234.598175 216.171524
-856.067566 -108.617165 262.144531
-851.182556 32.400135 279.156525
-852.267578 60.229939 272.964539
-859.327576 -46.452564 246.013535
-865.752563 -135.028168 222.756531
-859.049561 104.708839 252.281525
-868.829590 56.586933 219.981522
-863.062561 -91.628563 232.716522
-857.404602 173.797836 259.891541
-857.669556 16.793537 253.453522
-859.149597 -19.308064 247.539520
-859.497559 -20.173065 246.413528
-868.014587 164.648834 226.394531
-870.107605 154.123825 219.474533
-865.972595 -143.064163 221.784531
-864.654602 39.169434 232.419525
-867.134583 92.634140 226.574524
-870.222595 135.540833 218.448532
-866.484558 -90.237564 222.066528
-858.387573 106.364838 254.411530
-859.012573 172.650833 254.826523
-862.297607 -94.608559 235.001526
-864.889587 25.836536 231.203522
-853.807556 93.130638 268.259521
-851.239563 184.627838 279.546509
-868.902588 -189.407166 210.971527
-858.034607 19.583237 252.411530
-859.647583 151.074829 252.068527
-860.042603 99.659836 248.996521
-869.014587 -232.304169 209.086533
-865.079590 -10.710255 229.301529
-860.474609 79.920135 246.936523
-868.504578 54.764435 220.933533
-867.654602 58.670635 223.733521
-864.627563 123.278831 235.503525
-859.172607 91.684441 251.431534
-865.209595 38.052036 230.638535
-858.109558 102.776840 255.146530
-864.989563 -133.710175 225.186523
-868.839600 138.400833 222.871521
-858.882568 168.771835 255.093521
-868.487610 -196.237167 212.021530
-858.124573 86.466637 254.513535
-854.274597 93.242638 266.794525
-864.407593 -106.701164 227.976532
-873.927612 -293.195160 166.816528
-875.219604 -272.855164 146.496521
-877.542603 29.028534 146.781525
-878.124573 79.410141 143.339020
-876.957581 -253.500168 118.011528
-875.279602 -270.198181 145.781525
-876.077576 -251.568176 134.071533
-875.767578 -211.204163 145.256531
-877.382568 -230.470169 113.596527
-877.679565 -20.819065 137.401428
-878.272583 -113.794159 113.836426
-879.162598 121.133842 130.546524
-875.572571 -120.980164 161.284027
-874.312561 -267.660156 163.489029
-876.387573 -184.668167 137.794037
-876.902588 -268.413177 116.924026
-875.547607 -223.560165 147.456528
-878.482605 17.963936 128.376526
-878.234558 -132.509171 111.929031
-876.332581 -298.085175 123.031525
-878.414612 -24.174866 123.736526
-878.359558 -28.748863 124.091431
-875.327576 -150.646164 161.516525
-877.072571 -284.140167 111.731529
-878.442566 -43.732063 120.549026
-877.817566 -104.500061 123.329025
-873.617554 -245.450165 179.018524
-877.094604 -295.865173 109.661530
-878.397583 -85.465561 115.529022
-877.077576 -137.444168 131.981537
-877.802612 -163.937164 115.316528
-872.847595 -274.908173 188.738525
-876.807556 -265.743164 119.036530
-878.299561 -61.976864 120.546524
-873.394592 -307.303162 174.419525
-874.912598 -214.074173 160.146530
-877.269592 -57.117065 139.694031
-874.684570 -298.833160 152.476532
-874.902588 -248.570175 155.534027
-877.112610 -243.458176 116.636528
-877.739563 -232.206161 106.974030
-877.494568 -96.023064 130.251526
-877.107605 -168.232162 127.201523
-873.304565 -268.150177 181.481537
-874.464600 -220.789169 167.243927
-875.009583 -260.888153 151.896530
-877.952576 29.365135 139.459030
-874.692566 -273.165161 155.921524
-875.389587 -249.348175 146.719025
-876.542603 -247.923172 126.241531
-876.657593 -173.093170 134.584030
-878.162598 -84.121063 119.963928
-876.659607 -142.569168 138.771423
-879.164612 64.574638 122.626526
