ply
format ascii 1.0
element vertex 1369
property float x
property float y
property float z
end_header
-418.393738 -1859.410522 3.441929
-432.143738 -1967.020508 6.424931
-413.253754 -1893.460449 2.353928
-414.843750 -2015.100464 2.738930
-421.543732 -2007.610474 4.168930
-421.193756 -1951.390503 4.072929
-424.653748 -1984.880493 4.825928
-413.763733 -1922.460449 2.471928
-417.843750 -1893.260498 3.333931
-411.413757 -1972.150513 1.988930
-419.583740 -1967.610474 3.733929
-413.853760 -1848.020508 2.467930
-408.393738 -1874.270508 1.401928
-405.013733 -1851.730469 0.750931
-403.953735 -1871.320435 0.539928
-406.083740 -1910.480469 0.943928
-469.723755 -1837.730469 15.126928
-472.553741 -1958.950439 15.803928
-468.423737 -1876.540527 14.819929
-471.253754 -1911.540527 15.493929
-462.193756 -1834.360474 13.335930
-469.623749 -1927.730469 15.103930
-447.743744 -1824.600464 9.954929
-451.833740 -1823.290527 10.891930
-450.873749 -1857.250488 10.703930
-444.843750 -1849.000488 9.298927
-457.043732 -1946.250488 12.167929
-448.853760 -1952.010498 10.248930
-467.713745 -1986.310425 14.673929
-464.433746 -1944.290527 13.899929
-444.603760 -1972.420532 9.255928
-449.483734 -2011.760498 10.402929
-446.253754 -2003.090454 9.644928
-451.283752 -1996.450439 10.822929
-442.063751 -1920.740479 8.652927
-467.433746 -1977.830444 14.607929
-444.933746 -2012.800537 9.336929
-438.153748 -1850.110474 7.755928
-440.343750 -1844.560425 8.255928
-435.623749 -1897.660522 7.172928
-507.353760 -1809.630493 24.293930
-501.763733 -1802.670532 22.919930
-507.663757 -1847.700439 24.368929
-509.843750 -1950.940430 24.904930
-492.463745 -1843.510498 20.647928
-489.623749 -1859.400513 19.958929
-492.613739 -1873.110474 20.689930
-487.043732 -1835.180420 19.325930
-502.423737 -1886.430420 23.082930
-486.683746 -1803.970459 19.232929
-492.973755 -1977.350464 20.783930
-480.353760 -1852.710449 17.693930
-480.513733 -1936.310425 17.735929
-500.043732 -1934.970459 22.510929
-490.893738 -1922.160522 20.271929
-478.243744 -1850.400513 17.179930
-477.423737 -1989.670532 16.978930
-487.873749 -1922.490479 19.533930
-485.743744 -1983.920532 19.013929
-483.203735 -1881.290527 18.392929
-483.443756 -1842.430420 18.450930
-488.093750 -1933.620483 19.586929
-527.723755 -1802.530518 29.296928
-533.293762 -1873.780518 30.652929
-531.733765 -1788.140503 30.283928
-536.383728 -1836.890503 31.419930
-533.063721 -1836.310425 30.602928
-531.613770 -1831.710449 30.247929
-521.193726 -1828.000488 27.689930
-525.283752 -1921.430420 28.688931
-514.303772 -1961.140503 26.000929
-524.753723 -1959.320435 28.558929
-513.123718 -1876.460449 25.712929
-528.383728 -1954.860474 29.449928
-514.123718 -1829.410522 25.957930
-531.873718 -1917.740479 30.302929
-522.123718 -1935.470459 27.914928
-521.063721 -1904.320435 27.655930
-523.473755 -1971.930420 28.245930
-533.003723 -1933.870483 30.579929
-537.703735 -1907.980469 31.731930
-513.143738 -1851.140503 25.717930
-511.103760 -1792.820435 25.215929
-511.213745 -1841.680420 25.242929
-577.673767 -1798.800537 41.288898
-575.093750 -1807.300537 40.675919
-565.843750 -1766.160522 38.513939
-578.463745 -1789.410522 41.481892
-569.333740 -1813.180420 39.309898
-558.693726 -1772.380493 36.820938
-559.823730 -1915.390503 37.052940
-560.333740 -1833.970459 37.189899
-563.063721 -1858.600464 37.823929
-565.993774 -1891.550537 38.504898
-565.333740 -1849.290527 38.357929
-558.043762 -1907.880493 36.636917
-584.283752 -1914.230469 42.785908
-558.563721 -1939.940430 36.753929
-561.963745 -1923.730469 37.552940
-574.583740 -1928.470459 40.508930
-564.983765 -1922.700439 38.260948
-551.603760 -1941.080444 35.122940
-552.783752 -1768.870483 35.410908
-550.423767 -1926.240479 34.845909
-548.013733 -1778.330444 34.252888
-549.553772 -1880.660522 34.630939
-548.543762 -1884.830444 34.385948
-542.923767 -1802.610474 33.016930
-546.483765 -1881.060425 33.884911
-610.503723 -1761.310425 48.292931
-611.183716 -1839.620483 48.392899
-613.393738 -1819.270508 48.819908
-599.663757 -1756.810425 46.106888
-611.283752 -1847.730469 48.405899
-603.023743 -1777.200439 46.777908
-611.023743 -1877.590454 48.311909
-596.343750 -1760.360474 45.381920
-591.893738 -1818.800537 44.449909
-593.603760 -1901.590454 44.773880
-591.063721 -1809.890503 44.282921
-601.083740 -1883.910522 46.294937
-602.173767 -1816.450439 46.531940
-604.813721 -1847.040527 47.060928
-592.173767 -1901.950439 44.483910
-592.483765 -1863.530518 44.556900
-597.143738 -1919.650513 45.486900
-587.493774 -1807.300537 43.503929
-588.313721 -1818.810425 43.688919
-585.203735 -1883.450439 43.009907
-584.673767 -1786.160522 42.870930
-583.383728 -1744.660522 42.571918
-622.533752 -1758.330444 50.211929
-626.243774 -1712.080444 50.737930
-626.713745 -1727.550537 50.779930
-626.083740 -1733.790527 50.708939
-626.853760 -1853.740479 50.701920
-620.383728 -1838.210449 49.857929
-625.443726 -1897.230469 50.490929
-625.023743 -1838.340454 50.469929
-620.293762 -1805.160522 49.864891
-617.283752 -1865.410522 49.432938
-617.113770 -1732.380493 49.454910
-629.623718 -1818.140503 51.023880
-631.843750 -1785.070435 51.085899
-632.363770 -1809.470459 51.076920
-633.903748 -1725.370483 51.058918
-636.063721 -1877.010498 50.800919
-791.163757 -1708.630493 66.129929
-791.153748 -1722.090454 66.172928
-791.313721 -1739.000488 65.207932
-791.493774 -1706.460449 62.546928
-791.493774 -1577.930420 62.116928
-786.123718 -1645.960449 89.117928
-786.223755 -1678.300537 88.695930
-786.633728 -1623.180420 87.149933
-787.793762 -1573.060425 82.412933
-786.423767 -1674.680420 87.877930
-790.263733 -1656.370483 71.502930
-789.603760 -1624.570435 74.290924
-790.183716 -1742.630493 71.822929
-788.923767 -1632.600464 77.182930
-789.523743 -1678.480469 74.645927
-787.663757 -1717.870483 82.455933
-787.443726 -1682.730469 83.393929
-790.573730 -1561.470459 69.718933
-791.143738 -1562.490479 66.149933
-782.253723 -1549.800537 102.830933
-782.533752 -1587.100464 101.855927
-781.853760 -1595.340454 104.151932
-785.243774 -1708.070435 92.390930
-783.913757 -1669.070435 97.014931
-783.453735 -1627.060425 98.636932
-783.413757 -1703.340454 98.672928
-783.933716 -1663.990479 96.929932
-781.263733 -1718.710449 106.008926
-784.883728 -1604.510498 93.690933
-785.623718 -1668.100464 90.985931
-786.293762 -1551.760498 88.421928
-776.563721 -1529.870483 120.889923
-775.523743 -1644.360474 123.919922
-778.173767 -1530.120483 115.991928
-778.743774 -1615.910522 114.160934
-779.133728 -1645.070435 112.977936
-776.473755 -1643.890503 121.029922
-775.773743 -1675.740479 123.089935
-778.513733 -1640.400513 114.845932
-778.363770 -1657.350464 115.292923
-779.923767 -1614.240479 110.500931
-778.823730 -1531.790527 113.949936
-780.183716 -1587.150513 109.666931
-769.863770 -1536.020508 139.409927
-769.583740 -1527.080444 140.159927
-770.693726 -1549.120483 137.209930
-771.733765 -1563.950439 134.419922
-772.983765 -1531.020508 131.069931
-772.703735 -1656.760498 131.689926
-769.723755 -1685.870483 139.659927
-772.433716 -1626.560425 132.419922
-773.983765 -1619.420532 128.279922
-773.813721 -1605.420532 128.719925
-776.193726 -1531.530518 121.949936
-776.003723 -1565.250488 122.519928
-762.983765 -1496.310425 155.850128
-761.613770 -1550.220459 158.730133
-764.203735 -1508.390503 153.110123
-764.493774 -1506.990479 152.460129
-767.833740 -1661.380493 144.520126
-761.723755 -1636.810425 158.480133
-763.923767 -1569.580444 153.630127
-767.183716 -1619.690430 146.090134
-766.783752 -1617.390503 147.000122
-767.623718 -1641.340454 145.050125
-768.103760 -1608.130493 143.860123
-767.863770 -1513.030518 144.430130
-769.173767 -1526.220459 141.209930
-757.693726 -1487.690430 166.530136
-758.333740 -1538.850464 165.230133
-759.063721 -1623.670532 163.780136
-759.483765 -1576.920532 163.080124
-754.523743 -1651.200439 171.990128
-759.633728 -1513.100464 162.800125
-750.713745 -1481.000488 177.710129
-753.553772 -1567.860474 173.660126
-752.303772 -1613.740479 175.400131
-751.613770 -1566.970459 176.390121
-754.033752 -1538.540527 172.860123
-755.433716 -1481.580444 170.490128
-748.813721 -1515.030518 180.160126
-747.083740 -1551.280518 182.080124
-746.253723 -1543.140503 182.910126
-746.003723 -1527.270508 183.140121
-743.463745 -1459.740479 185.130127
-741.093750 -1602.920532 186.320129
-739.443726 -1636.470459 186.730118
-636.473755 -1774.550537 50.647911
-639.893738 -1718.420532 49.282921
-639.973755 -1815.590454 49.275898
-645.163757 -1859.000488 47.337910
-639.993774 -1803.980469 49.263939
-638.323730 -1868.730469 49.934898
-644.333740 -1716.390503 47.639908
-652.243774 -1781.580444 45.306900
-648.483765 -1710.750488 46.332909
-648.813721 -1747.910522 46.247940
-649.613770 -1826.110474 46.033890
-648.923767 -1701.790527 46.186909
-673.923767 -1730.450439 40.704910
-669.733765 -1698.770508 41.338886
-673.363770 -1829.490479 40.760948
-668.543762 -1719.500488 41.577900
-667.773743 -1692.870483 41.695942
-660.193726 -1773.900513 43.220905
-664.223755 -1850.410522 42.480915
-662.583740 -1834.590454 42.781940
-663.313721 -1762.560425 42.641926
-668.913757 -1817.580444 41.608906
-656.223755 -1731.630493 44.175919
-657.273743 -1713.900513 43.908890
-675.463745 -1720.900513 40.480919
-682.413757 -1849.380493 39.702900
-688.193726 -1816.430420 39.065941
-680.573730 -1819.710449 39.875938
-682.983765 -1784.140503 39.594929
-677.773743 -1776.350464 40.140888
-685.403748 -1822.060425 39.365929
-681.763733 -1686.270508 39.658890
-689.623718 -1727.010498 38.885948
-690.283752 -1733.430420 38.820938
-710.643738 -1771.230469 37.923908
-706.213745 -1693.090454 37.992939
-706.863770 -1757.650513 38.061909
-704.103760 -1685.240479 38.053909
-706.383728 -1789.360474 38.100910
-699.953735 -1766.180420 38.306900
-698.903748 -1819.180420 38.353901
-707.843750 -1792.450439 38.053909
-700.223755 -1848.470459 38.317890
-699.053772 -1700.450439 38.319908
-694.333740 -1714.340454 38.518940
-722.963745 -1640.550537 38.087910
-726.003723 -1673.440430 38.228897
-726.303772 -1697.950439 38.285908
-722.053772 -1664.810425 38.114891
-734.193726 -1804.890503 38.693928
-716.903748 -1794.900513 38.008930
-715.923767 -1824.820435 37.971939
-721.173767 -1720.160522 38.174889
-721.073730 -1781.100464 38.174889
-720.803772 -1709.430420 38.158890
-714.323730 -1726.730469 37.900898
-731.463745 -1788.200439 38.591938
-711.363770 -1699.100464 37.914940
-749.473755 -1623.660522 40.314899
-745.683716 -1654.320435 39.865929
-750.273743 -1757.080444 40.461929
-746.053772 -1647.900513 39.901939
-741.753723 -1755.090454 39.474930
-737.513733 -1742.670532 38.974930
-737.503723 -1654.390503 38.948929
-737.723755 -1767.650513 39.005939
-748.053772 -1796.840454 40.223900
-738.983765 -1744.250488 39.145889
-728.613770 -1650.370483 38.336929
-731.643738 -1723.730469 38.520889
-734.063721 -1644.400513 38.689899
-734.763733 -1769.430420 38.715900
-755.773743 -1616.540527 41.277912
-765.913757 -1749.340454 43.498920
-758.893738 -1684.360474 41.980915
-766.853760 -1784.420532 43.722919
-760.023743 -1784.730469 42.290913
-762.363770 -1704.070435 42.722919
-762.173767 -1687.550537 42.667927
-765.393738 -1734.760498 43.379898
-766.153748 -1729.210449 43.528889
-778.523743 -1682.090454 47.367939
-778.323730 -1723.110474 47.351891
-777.433716 -1715.920532 47.054890
-771.343750 -1605.260498 44.921890
-777.693726 -1742.380493 47.168900
-772.483765 -1688.170532 45.362930
-772.113770 -1672.130493 45.231888
-768.933716 -1783.880493 44.165909
-767.323730 -1673.960449 43.756920
-767.233765 -1657.710449 43.734940
-786.653748 -1607.450439 51.679890
-782.053772 -1749.380493 49.071918
-784.113770 -1675.900513 50.139908
-781.493774 -1661.550537 48.686909
-787.713745 -1645.750488 52.491928
-789.793762 -1724.830444 54.591930
-789.773743 -1604.320435 54.550930
-791.183716 -1679.210449 56.654930
-790.793762 -1581.870483 55.905930
-791.813721 -1617.580444 60.791931
-791.563721 -1697.730469 61.799927
527.830261 -2000.900513 -441.643860
517.725281 -2006.320435 -452.849854
494.238251 -2006.000488 -470.659851
498.119263 -2018.600464 -468.513855
503.545258 -2017.490479 -464.907867
454.349243 -2012.990479 -487.065857
473.067261 -2005.380493 -480.975830
457.996246 -2014.990479 -486.062866
444.611267 -2013.370483 -489.419861
400.374268 -2006.770508 -496.370850
366.497253 -2019.470459 -499.079834
381.502258 -2012.960449 -497.981873
355.347260 -2016.610474 -499.757874
396.713257 -2010.990479 -496.846863
348.101257 -2020.770508 -500.062866
297.518250 -2023.000488 -501.308838
325.641266 -2015.980469 -500.576843
325.602264 -2022.360474 -500.638855
341.671265 -2019.570435 -500.288879
225.836273 -2031.410522 -501.793884
201.429276 -2026.630493 -501.745850
199.731277 -2038.010498 -501.761841
194.576263 -2040.570435 -501.757874
245.935272 -2032.530518 -501.775879
277.532257 -2030.820435 -501.628845
118.061272 -2041.040527 -501.551880
102.263268 -2031.260498 -501.521851
125.549271 -2040.540527 -501.570862
153.916275 -2038.080444 -501.645874
165.093277 -2035.440430 -501.678833
90.162369 -2035.740479 -501.504883
45.421371 -2044.510498 -501.541870
70.027374 -2031.410522 -501.534851
3.467360 -2032.900513 -501.674866
561.625244 -1982.440430 -379.004852
565.788269 -1987.220459 -368.610870
571.877258 -1977.620483 -351.892853
557.552246 -1994.010498 -389.249847
539.313232 -1996.620483 -425.131866
542.486267 -1998.010498 -420.118866
546.277283 -1999.930420 -413.166870
534.329285 -1997.960449 -432.722870
537.852234 -2001.750488 -427.494873
26.152370 -2099.680420 -451.554871
94.031372 -2100.260498 -448.904846
102.386269 -2088.070557 -468.595856
4.743360 -2050.040527 -498.606873
4.610370 -2055.250488 -495.315857
217.660263 -2048.550537 -496.570862
253.302277 -2042.640503 -498.125854
253.086273 -2036.990479 -501.550842
297.968262 -2041.780518 -495.432861
319.719269 -2037.370483 -496.107849
298.419250 -2038.350464 -497.457886
356.209259 -2027.990479 -498.023865
355.754242 -2025.710449 -499.521851
523.335266 -2016.060425 -441.027863
367.100250 -2073.760498 -436.728851
326.060242 -2082.310547 -440.160858
87.483368 -2101.730469 -445.067871
129.559265 -2100.820557 -445.350861
43.115372 -2083.520508 -474.024841
48.809372 -2070.080566 -485.809875
0.448318 -2069.770508 -485.755859
28.326370 -2074.020508 -482.659851
1.938370 -2078.500488 -478.524841
47.308372 -2077.980469 -479.196838
70.241371 -2076.090576 -480.915833
120.883270 -2086.000488 -470.528870
152.877274 -2086.550537 -468.554871
391.037262 -2054.070557 -469.648865
362.127258 -2060.720459 -469.782837
329.303253 -2067.730469 -469.220856
308.234253 -2064.930420 -476.221863
297.040253 -2067.050537 -475.839844
254.145264 -2079.760498 -467.880859
236.149277 -2075.340576 -474.909851
214.487274 -2083.940430 -467.484863
220.994278 -2075.990479 -475.657837
163.481277 -2081.510498 -473.531860
144.311264 -2081.910400 -474.154846
164.239273 -2077.920410 -477.068848
112.665268 -2072.310547 -483.590881
80.846367 -2072.690430 -483.708862
67.304367 -2062.250488 -491.442871
67.020370 -2070.600586 -485.527832
46.064369 -2061.160400 -491.969849
24.500271 -2062.490479 -490.742859
62.197372 -2047.190430 -500.829834
57.189369 -2056.070557 -495.422852
15.066371 -2052.620361 -497.096863
450.862244 -2030.010498 -477.158875
388.359253 -2046.150513 -478.945862
377.032257 -2044.510498 -482.670837
358.015259 -2050.280518 -481.211853
344.103241 -2048.740479 -484.930847
309.638245 -2061.970459 -478.661865
308.083252 -2055.140381 -484.791870
297.009247 -2057.770508 -483.997864
279.496246 -2061.510498 -482.793884
234.711273 -2073.220459 -477.074829
224.743271 -2070.740479 -479.965881
187.242264 -2072.480469 -480.779846
158.976273 -2069.440430 -484.636841
142.993271 -2065.850586 -487.784851
137.235275 -2059.450439 -492.522888
118.728271 -2062.930420 -490.384888
116.164268 -2066.040527 -488.214844
121.188271 -2057.670410 -494.069885
395.318268 -2029.390503 -491.306885
392.086243 -2023.980469 -495.692871
355.129242 -2041.700439 -488.693848
352.617249 -2037.980469 -491.672852
333.288269 -2044.120483 -489.928833
294.395264 -2045.810425 -493.013855
293.667267 -2044.730469 -493.847839
260.411255 -2056.940430 -488.170837
243.495270 -2052.300537 -492.711853
217.766266 -2063.030518 -486.758850
203.082275 -2061.740479 -488.509888
177.172272 -2063.510498 -488.246887
156.784271 -2058.790527 -492.306885
193.359268 -2051.900391 -495.654846
140.980270 -2055.440430 -495.063843
380.666260 -2064.720459 -457.236847
385.813263 -2065.490479 -452.547852
380.991241 -2067.160400 -451.396851
384.831268 -2066.930420 -449.274872
396.474243 -2065.010498 -444.965851
498.571259 -2028.000488 -437.306854
461.882263 -2043.700439 -435.978851
494.801270 -2029.620483 -445.202850
450.909241 -2047.860474 -438.881866
445.762268 -2049.270508 -444.641846
410.335266 -2061.640381 -438.697845
416.425262 -2058.990479 -445.016846
432.672241 -2051.150391 -454.648865
403.066254 -2059.940430 -455.232849
494.039246 -2026.480469 -458.678864
489.997253 -2027.150513 -460.852844
464.950256 -2037.010498 -461.046844
476.029266 -2030.240479 -465.558868
410.545258 -2047.030518 -471.795837
432.178253 -2031.710449 -481.508850
29.819370 -2101.960449 -445.538849
60.089371 -2100.720459 -449.035858
24.576370 -2100.350586 -450.034851
12.680370 -2093.710449 -461.707855
20.680370 -2096.680420 -457.402863
3.138320 -2098.860596 -453.033875
33.436371 -2098.490479 -454.021851
73.837372 -2099.270508 -452.303864
156.824265 -2098.080566 -449.468872
282.740265 -2088.090576 -446.174866
216.213272 -2094.840576 -448.516846
175.486267 -2096.550537 -451.006866
193.222275 -2095.280518 -451.955872
129.684265 -2097.400391 -454.083862
222.438278 -2091.670410 -454.728851
222.656265 -2091.110596 -455.839874
449.362244 -2043.780518 -458.364868
413.124268 -2051.550537 -464.623871
398.247253 -2055.550537 -464.949860
383.322266 -2058.080566 -466.742859
365.395264 -2065.640381 -461.929871
310.126251 -2078.000488 -459.373871
322.964264 -2072.240479 -464.712860
222.286270 -2089.060547 -459.223846
204.560272 -2089.120361 -461.355865
171.598267 -2091.380371 -460.728851
161.445267 -2091.070557 -461.962860
94.711273 -2095.650391 -458.296844
104.768272 -2091.190430 -464.738861
60.866371 -2093.670410 -462.008850
61.974270 -2095.300537 -459.559845
-10.099629 -2034.140503 -501.646851
-77.553627 -2044.980469 -501.506836
-47.299629 -2033.490479 -501.555847
-123.583733 -2038.230469 -501.565857
-122.053726 -2040.950439 -501.559875
-106.503731 -2044.060425 -501.528870
-229.773727 -2037.740479 -501.793884
-226.623734 -2024.730469 -501.783875
-210.723724 -2036.470459 -501.770874
-188.653732 -2035.050537 -501.744873
-188.163727 -2039.840454 -501.744873
-267.713745 -2029.480469 -501.671875
-334.923737 -2024.170532 -500.529846
-326.203735 -2019.710449 -500.652832
-296.103760 -2022.820435 -501.371887
-379.223755 -2015.060425 -498.141846
-365.173737 -2014.990479 -499.096863
-364.833740 -2023.130493 -499.272888
-346.703735 -2017.370483 -500.117859
-429.233734 -2014.770508 -492.597839
-420.503754 -2007.750488 -493.771851
-408.473755 -2013.810425 -495.414856
-441.423737 -2017.120483 -490.144836
-434.443756 -2005.410522 -491.480835
-472.223755 -2009.320435 -481.445862
-470.713745 -2014.490479 -481.937866
-467.113739 -2014.020508 -483.206848
-454.703735 -2008.050537 -486.991882
-457.063751 -2017.630493 -486.309875
-481.763733 -2009.680420 -477.283875
-495.863739 -2019.170532 -470.015869
-489.783752 -2017.040527 -473.546875
-515.553772 -2012.360474 -455.191864
-530.973755 -2007.830444 -437.947845
-523.573730 -2004.580444 -447.021851
478.003265 -2036.720459 -431.591858
465.176270 -2041.990479 -409.257874
422.312256 -2057.640381 -427.810852
430.266266 -2054.950439 -427.884857
453.764252 -2046.400513 -422.338867
544.845276 -2004.130493 -407.835846
545.235229 -2003.570435 -371.902863
539.755249 -2006.900513 -404.905853
541.664246 -2005.990479 -417.039856
484.630249 -2033.760498 -389.802856
489.030243 -2031.860474 -391.655853
491.262268 -2030.660522 -377.549866
501.184265 -2026.300537 -403.240845
497.940247 -2027.600464 -361.871857
509.530243 -2022.310425 -420.280853
509.064270 -2022.420532 -385.839874
501.962250 -2025.870483 -385.555847
504.953247 -2024.560425 -428.571869
520.266235 -2016.860474 -373.521851
514.033264 -2019.970459 -381.171844
513.396240 -2020.200439 -367.074860
524.907227 -2014.630493 -383.690857
527.757263 -2012.970459 -362.504852
533.330261 -2010.230469 -389.261871
551.995239 -1999.670532 -363.372864
556.995239 -1996.880493 -375.366852
5.693370 -2091.000488 -444.218872
5.457350 -2088.670410 -444.219849
37.754372 -2099.270508 -444.153870
61.508369 -2102.170410 -444.096863
123.574272 -2089.630371 -443.873871
81.738373 -2089.490479 -444.013855
77.867371 -2099.620361 -444.048859
65.875267 -2100.950439 -444.086853
157.414276 -2087.820557 -443.636871
162.556274 -2099.320557 -443.623871
221.428268 -2084.220459 -442.874847
230.900269 -2089.250488 -442.729858
224.861267 -2095.000488 -442.853851
264.254242 -2078.880371 -441.911865
263.519257 -2090.780518 -441.984863
327.079254 -2080.060547 -439.172852
348.365265 -2067.810547 -437.497864
354.226257 -2072.520508 -436.982849
396.057251 -2053.840576 -431.216858
376.169250 -2065.680420 -434.542847
-13.524630 -2090.570557 -466.101868
-356.313751 -2076.350586 -437.149872
-411.923737 -2061.200439 -434.049866
-528.603760 -2013.430420 -440.423859
-410.763733 -2021.690430 -494.295837
-360.123749 -2033.110474 -494.040833
-367.233734 -2027.540527 -496.858887
-278.423737 -2038.050537 -499.252869
-250.813736 -2041.820435 -498.931885
-205.953735 -2046.570435 -498.462830
-141.263733 -2049.640381 -498.664856
-505.753754 -2024.380493 -436.406860
-480.973755 -2035.900513 -436.062866
-493.913757 -2030.180420 -443.257874
-485.463745 -2033.930420 -441.171844
-436.843750 -2053.130371 -439.471863
-404.853760 -2063.440430 -438.292847
-381.533752 -2069.950439 -436.937866
-349.433746 -2077.040527 -442.466858
-391.753754 -2066.990479 -440.475861
-426.743744 -2055.640381 -445.843872
-485.573730 -2032.870483 -449.923859
-322.983734 -2079.360596 -452.489868
-349.943756 -2074.620361 -450.945862
-342.173737 -2074.920410 -454.376862
-385.743744 -2065.780518 -451.935852
-446.403748 -2047.100464 -453.008850
-441.643738 -2036.890503 -473.160889
-38.529629 -2081.080566 -476.433838
-19.537630 -2082.810547 -474.466858
-33.423630 -2087.890381 -469.414856
-27.022629 -2070.370361 -485.465881
-53.448627 -2073.390381 -483.120850
-387.743744 -2052.650391 -472.256836
-352.633759 -2055.130371 -477.838867
-343.733734 -2062.260498 -472.289856
-317.643738 -2067.810547 -471.391846
-299.083740 -2064.520508 -477.999878
-281.493744 -2072.690430 -471.983887
-266.753754 -2077.950439 -468.590851
-228.543732 -2077.740479 -472.978882
-207.583725 -2081.870361 -470.476868
-12.856629 -2051.480469 -497.790833
-13.835629 -2049.730469 -498.900879
-34.785629 -2054.620361 -496.113831
-9.411670 -2059.670410 -492.539856
-1.258650 -2061.810547 -491.124878
-344.283752 -2036.480469 -493.793884
-324.263733 -2042.150513 -492.330872
-315.043732 -2045.580444 -491.016846
-297.213745 -2048.050537 -491.187866
-288.473755 -2050.060547 -490.607849
-262.043732 -2053.790527 -490.327881
-220.993729 -2059.300537 -489.306885
-415.983734 -2029.370483 -487.284851
-386.163757 -2033.420532 -490.068848
-382.143738 -2039.380493 -485.964844
-367.803741 -2038.970459 -489.009888
-351.823730 -2047.910522 -484.264832
-321.113739 -2048.570557 -488.283875
-312.503754 -2054.910400 -484.254883
-293.643738 -2063.290527 -479.749878
-261.313751 -2066.730469 -480.337830
-234.373734 -2065.050537 -484.037842
-207.943726 -2064.850586 -485.977844
-202.813736 -2066.860596 -484.675842
-8.653669 -2101.910400 -445.589874
-46.546631 -2092.400391 -463.708862
-84.853630 -2092.820557 -462.731873
-82.993629 -2085.290527 -471.983887
-104.743729 -2086.840576 -469.989868
-74.280632 -2080.380371 -477.243835
-95.933632 -2081.780518 -475.413879
-76.323631 -2077.850586 -479.400879
-121.483727 -2075.470459 -480.745850
-118.903732 -2076.570557 -479.885864
-90.213631 -2059.610596 -492.906860
-88.283630 -2067.220459 -487.839844
-91.963631 -2054.010498 -496.635864
-90.923630 -2055.550537 -495.616882
-99.783630 -2053.150391 -497.118835
-105.623726 -2099.620361 -450.019867
-189.443726 -2094.610596 -453.797852
-207.603729 -2091.430420 -457.597870
-224.933731 -2091.780518 -454.138855
-383.563751 -2064.630371 -456.072845
-368.153748 -2068.850586 -455.472870
-311.163757 -2079.340576 -456.869873
-298.373749 -2081.870361 -456.150848
-287.973755 -2084.360596 -454.198853
-252.593735 -2089.930420 -451.901855
-200.883728 -2097.090576 -445.373871
-472.253754 -2037.270508 -454.058868
-386.203735 -2067.150391 -447.214874
-308.913757 -2084.360596 -445.077850
-293.053741 -2086.030518 -448.273865
-257.863739 -2091.970459 -443.963867
-109.063728 -2092.230469 -462.978851
-140.813736 -2092.580566 -461.286865
-132.613724 -2093.380371 -460.737854
-156.013733 -2082.110596 -473.193848
-169.553726 -2079.370361 -475.332886
-173.233734 -2076.160400 -478.372864
-138.173737 -2078.030518 -478.272888
-182.223724 -2072.570557 -480.941833
-178.333725 -2070.830566 -482.521851
-176.883728 -2063.190430 -488.607849
-157.543732 -2058.090576 -492.654846
-194.843735 -2054.650391 -493.723877
-196.303726 -2058.820557 -490.890869
-178.413727 -2049.530518 -497.638855
-52.142628 -2100.020508 -450.795868
-98.203629 -2099.030518 -451.833862
-162.003723 -2093.640381 -458.273865
-251.103729 -2086.330566 -459.187866
-285.133759 -2077.850586 -465.161865
-326.223755 -2074.080566 -461.232849
-334.253754 -2071.120361 -463.467865
-350.223755 -2069.580566 -460.965851
-358.483734 -2062.660400 -468.322845
-376.283752 -2058.060547 -469.249847
-410.093750 -2049.510498 -469.078857
-429.093750 -2025.000488 -487.955872
-433.883759 -2023.550537 -488.081848
-544.033752 -1996.550537 -417.395874
-559.193726 -1995.290527 -385.670868
-552.183716 -1988.520508 -401.777863
-571.433716 -1974.510498 -353.200867
-563.463745 -1986.740479 -374.949860
460.280243 -2037.750488 -400.928864
476.219269 -2032.330444 -367.053864
458.127258 -2030.340454 -403.650848
474.773254 -2028.420532 -372.067871
472.493256 -2027.710449 -378.963867
456.441254 -2037.830444 -405.109863
-364.013733 -2069.380371 -435.989868
-367.363739 -2061.460449 -435.553864
-336.453735 -2073.320557 -438.574860
-295.963745 -2076.870361 -440.877869
-301.413757 -2074.920410 -440.568848
-322.163757 -2077.500488 -439.438873
-260.813751 -2082.220459 -442.038849
-208.813736 -2087.960449 -443.083862
-231.063736 -2086.460449 -442.722870
-151.103729 -2090.270508 -443.692871
-153.723724 -2096.610596 -443.688873
-178.023727 -2094.270508 -443.487854
-43.064728 -2100.680420 -444.137848
-96.163727 -2089.840576 -443.969849
-79.993629 -2100.730469 -444.048859
-75.977631 -2089.890381 -444.037872
-94.523628 -2101.490479 -443.994873
-31.668629 -2091.750488 -444.167847
-553.883728 -1998.990479 -395.490845
-554.973755 -1998.080444 -367.788849
-537.373718 -2008.220459 -398.654846
-545.593750 -2003.390503 -363.627869
-538.653748 -2007.160522 -363.313873
-497.893738 -2027.810425 -374.782867
-501.163757 -2026.260498 -365.161865
-497.063751 -2028.360474 -392.946869
-498.363739 -2027.820435 -424.139862
-511.773743 -2021.090454 -380.376862
-513.203735 -2020.430420 -393.510864
-508.863739 -2022.490479 -367.020874
-523.013733 -2015.870483 -433.654846
-508.713745 -2022.820435 -433.988861
-513.853760 -2020.270508 -424.153870
-516.053772 -2019.080444 -402.310852
-528.403748 -2012.750488 -364.680847
-535.883728 -2009.250488 -420.526855
-486.473755 -2033.060425 -392.219849
-489.713745 -2031.570435 -386.413849
-471.913757 -2039.310425 -402.008850
-470.733734 -2039.800537 -408.765869
-478.253754 -2036.690430 -428.730865
-457.493744 -2045.050537 -430.716858
-459.003754 -2043.490479 -402.770874
-471.553741 -2025.610474 -382.396851
-405.163757 -2049.040527 -429.409851
-450.903748 -2033.860474 -410.275848
-444.743744 -2039.620483 -414.518860
-425.363739 -2045.940430 -423.389862
-481.543732 -2022.510498 -340.912872
-475.983734 -2033.260498 -368.597870
-473.543732 -2032.570435 -376.068848
177.764267 1856.119507 -63.077869
139.526276 1856.119507 76.649933
175.522278 1856.119507 -30.793072
190.539276 1856.119507 -105.761871
161.305267 1856.119507 11.712929
155.483276 1856.119507 24.766930
191.879272 1856.119507 -94.324875
193.338272 1856.119507 -94.558868
140.660263 1856.119507 77.068924
173.498276 1856.119507 -20.001072
141.797272 1856.119507 73.425934
155.005264 1856.119507 28.858929
101.858269 1856.119507 177.750122
65.553368 1856.119507 319.170135
83.063370 1856.119507 235.950119
68.228371 1856.119507 294.210144
113.735268 1856.119507 148.600128
37.083370 1856.119507 404.050140
85.919373 1856.119507 243.360123
70.623367 1856.119507 302.860138
126.010269 1856.119507 112.181931
96.541374 1856.119507 205.490128
53.586269 1856.119507 331.770142
27.625271 1856.119507 422.160126
68.585373 1856.119507 292.430145
271.404266 1856.119507 137.259933
256.084259 1856.119507 151.140137
164.336273 1856.119507 271.120148
92.754372 1856.119507 353.960144
262.816254 1856.119507 145.880127
248.763275 1856.119507 162.330124
263.409241 1856.119507 142.820129
65.698273 1856.119507 203.320129
74.302368 1856.119507 174.420120
135.658264 1856.119507 -10.840073
48.565372 1856.119507 258.910126
165.835266 1856.119507 -120.224869
67.546371 1856.119507 202.830124
157.376266 1856.119507 -88.460876
152.213272 1856.119507 -82.432877
155.897278 1856.119507 -67.612869
127.504272 1856.119507 4.511929
93.939369 1856.119507 122.449936
120.481270 1856.119507 25.823929
160.987274 1856.119507 -98.210876
142.787277 1856.119507 -28.589069
180.119278 1856.119507 -92.817871
174.935272 1856.119507 -99.467880
79.623367 1856.119507 185.740128
175.410263 1856.119507 -104.472870
163.927277 1856.119507 -48.950069
179.620270 1856.119507 -81.917877
179.422272 1856.119507 -104.185867
166.407272 1856.119507 -76.871872
112.476273 1856.119507 77.810928
78.936371 1856.119507 190.620132
101.076271 1856.119507 124.059937
80.223373 1856.119507 184.080124
104.134270 1856.119507 121.619934
60.483372 1856.119507 254.770126
50.294369 1856.119507 295.200134
50.801373 1856.119507 285.080139
76.105370 1856.119507 201.860123
24.878370 1856.119507 353.920135
83.511368 1856.119507 196.020126
11.857370 1856.119507 378.210144
85.399368 1856.119507 191.300125
5.543350 1856.119507 419.280151
85.451370 1856.119507 174.790131
18.702370 1856.119507 383.930145
48.598370 1856.119507 292.940125
109.357269 1856.119507 125.769928
73.836273 1856.119507 238.330124
132.538269 1856.119507 68.406929
23.442371 1856.119507 404.270142
20.019371 1856.119507 417.610138
68.888374 1856.119507 250.540131
50.061371 1856.119507 322.700134
117.972267 1856.119507 104.548927
31.198271 1856.119507 389.700134
17.790371 1856.119507 421.520142
78.159370 1856.119507 233.320129
129.533264 1856.119507 78.729935
78.461273 1856.119507 232.980118
52.063370 1856.119507 324.090149
-85.513626 1856.119507 -125.461868
-138.513733 1856.119507 -59.324871
-57.794628 1856.119507 -170.504868
-208.273727 1856.119507 35.201920
-225.563736 1856.119507 57.531929
-68.167633 1856.119507 -162.059875
-247.583725 1856.119507 86.307930
-85.643631 1856.119507 -120.754868
-71.433632 1856.119507 -141.654877
-155.573730 1856.119507 -24.191074
-127.613731 1856.119507 -64.139877
-190.723724 1856.119507 17.164928
-123.683731 1856.119507 -73.802872
-166.943726 1856.119507 -13.922070
-55.337631 1856.119507 -148.499878
-113.133728 1856.119507 -74.231873
-189.553726 1856.119507 27.329929
-106.413727 1856.119507 -83.246872
-231.963730 1856.119507 72.238930
-179.083725 1856.119507 10.060928
-203.543732 1856.119507 41.738911
-262.753754 1856.119507 123.169922
-55.367630 1856.119507 -146.396881
-222.053726 1856.119507 81.753929
-297.003754 1856.119507 174.740128
-84.843628 1856.119507 -105.037872
-252.603729 1856.119507 123.579926
-276.803741 1856.119507 154.640137
-243.223724 1856.119507 101.253929
-272.613739 1856.119507 147.080124
-283.913757 1856.119507 157.560135
-142.843735 1856.119507 259.220123
-165.923737 1856.119507 346.090149
-102.983727 1856.119507 107.370926
-96.453629 1856.119507 99.114929
-110.433731 1856.119507 135.879929
-106.273727 1856.119507 109.950928
-111.283730 1856.119507 143.310135
-174.093735 1856.119507 367.320129
-106.923729 1856.119507 127.519928
-133.633728 1856.119507 248.870132
-137.873734 1856.119507 262.710144
-83.813629 1856.119507 41.785908
-150.593735 1856.119507 283.650146
-289.303741 1856.119507 109.202927
-291.533752 1856.119507 114.337936
-256.863739 1856.119507 -26.730068
-176.193726 1856.119507 279.080139
-189.183731 1856.119507 287.360138
-153.543732 1856.119507 192.100128
-138.243729 1856.119507 157.050125
-154.443726 1856.119507 183.840118
-169.403732 1856.119507 234.550125
-161.423737 1856.119507 207.040131
-96.693626 1856.119507 29.791929
-124.153732 1856.119507 115.329926
-89.193626 1856.119507 -5.388069
-186.323730 1856.119507 281.970123
-95.013626 1856.119507 11.671928
-81.003632 1856.119507 -14.855072
-193.733734 1856.119507 343.590149
-143.733734 1856.119507 182.410126
-168.443726 1856.119507 275.380127
-172.113724 1856.119507 289.680145
-100.233727 1856.119507 44.960899
-170.863724 1856.119507 275.970123
-81.733627 1856.119507 -6.025070
-179.723724 1856.119507 308.080139
-161.133728 1856.119507 251.030121
-122.193726 1856.119507 118.878937
-104.653732 1856.119507 71.054932
-134.273727 1856.119507 203.260132
-166.283722 1856.119507 294.220123
-165.433731 1856.119507 327.970154
-148.863724 1856.119507 253.830124
-65.058632 1856.119507 -51.459072
-165.933731 1856.119507 309.220154
-172.253723 1856.119507 351.380127
-138.123734 1856.119507 210.960129
-36.510628 1856.119507 -154.517868
-169.903732 1856.119507 345.840149
-79.549629 1856.119507 8.138927
-85.413727 1856.119507 14.962929
-119.513733 1856.119507 155.470123
236.762268 1856.119507 308.580139
81.691368 1856.119507 397.100128
218.803268 1856.119507 312.260132
124.102272 1856.119507 369.600128
200.827271 1856.119507 324.470154
242.292267 1856.119507 296.220123
164.154266 1856.119507 340.750153
129.978271 1856.119507 363.820129
164.456268 1856.119507 -127.396881
141.681274 1856.119507 -90.746872
89.759369 1856.119507 112.384933
122.958267 1856.119507 6.342930
63.411369 1856.119507 185.380127
149.045273 1856.119507 -87.722870
93.291374 1856.119507 90.499924
46.238369 1856.119507 254.400131
101.988274 1856.119507 64.818932
57.662369 1856.119507 212.150131
148.658264 1856.119507 -73.566864
64.774368 1856.119507 191.330124
93.201370 1856.119507 80.990929
135.803268 1856.119507 -71.877869
85.096367 1856.119507 92.420929
47.019371 1856.119507 233.880127
106.785271 1856.119507 -9.937069
26.889370 1856.119507 304.860138
139.072266 1856.119507 -130.728882
107.012268 1856.119507 -2.692070
67.717369 1856.119507 150.220123
128.012268 1856.119507 -93.905869
127.415268 1856.119507 -83.559875
101.367271 1856.119507 9.350929
113.993271 1856.119507 -13.531071
85.601372 1856.119507 99.844925
70.103371 1856.119507 142.780136
106.085274 1856.119507 5.581928
41.593372 1856.119507 224.410126
131.424271 1856.119507 -109.838867
85.170372 1856.119507 44.306900
40.945370 1856.119507 223.300125
119.345268 1856.119507 -75.462875
38.546371 1856.119507 232.960129
54.329372 1856.119507 174.840118
137.296265 1856.119507 -134.003876
61.532372 1856.119507 152.410126
107.542267 1856.119507 -33.849072
59.044369 1856.119507 152.740128
131.155273 1856.119507 -138.063873
128.007263 1856.119507 -107.734879
103.059273 1856.119507 -45.326069
-235.253723 1856.119507 -44.980068
-222.763733 1856.119507 -80.045868
-285.503754 1856.119507 111.808929
-237.873734 1856.119507 -41.566074
-236.583725 1856.119507 -50.417072
-296.373749 1856.119507 141.449936
-242.593735 1856.119507 -49.347073
220.319275 1856.119507 192.460129
240.082275 1856.119507 161.170135
202.035263 1856.119507 206.690125
276.508270 1856.119507 108.904922
168.764267 1856.119507 251.950119
82.071373 1856.119507 363.920135
282.809265 1856.119507 101.249924
173.152267 1856.119507 235.540131
200.534271 1856.119507 198.880127
153.256271 1856.119507 264.920135
182.301270 1856.119507 229.750122
222.620270 1856.119507 166.510132
162.555267 1856.119507 254.600128
145.325272 1856.119507 275.000122
169.202271 1856.119507 243.270126
258.729248 1856.119507 106.480927
147.499268 1856.119507 263.060120
258.109253 1856.119507 110.896927
210.564270 1856.119507 170.840118
265.442261 1856.119507 100.181931
172.180267 1856.119507 232.960129
100.027267 1856.119507 334.570129
252.030273 1856.119507 114.145935
210.186264 1856.119507 173.260132
-108.373726 1856.119507 156.500122
-130.223724 1856.119507 252.640121
-77.254631 1856.119507 30.879929
-58.841629 1856.119507 -48.939068
-144.943726 1856.119507 354.210144
-143.303726 1856.119507 322.520142
-106.553726 1856.119507 167.670135
-96.843628 1856.119507 124.409927
-84.573631 1856.119507 54.815929
-106.633728 1856.119507 151.450134
-133.633728 1856.119507 257.870148
-96.643631 1856.119507 110.577927
-69.383629 1856.119507 6.243931
-53.302628 1856.119507 -67.813873
-127.693726 1856.119507 309.220154
-70.617630 1856.119507 18.920929
-146.463730 1856.119507 380.460144
-82.793633 1856.119507 95.509933
-131.633728 1856.119507 306.540131
-136.053726 1856.119507 330.650146
-131.843735 1856.119507 340.850128
-107.983727 1856.119507 195.090118
-106.573730 1856.119507 182.900131
-134.263733 1856.119507 315.670135
-114.923729 1856.119507 268.410126
-54.017628 1856.119507 -65.060867
-122.443726 1856.119507 314.770142
-107.023727 1856.119507 275.600128
-71.944626 1856.119507 48.265888
-123.513733 1856.119507 340.310150
-58.966629 1856.119507 -1.892071
-91.723633 1856.119507 172.200119
-125.663727 1856.119507 373.210144
-108.423729 1856.119507 247.760132
-67.459633 1856.119507 27.959930
-91.473633 1856.119507 169.220123
-104.583733 1856.119507 229.800125
-47.571629 1856.119507 -71.985870
-106.823730 1856.119507 246.930130
-112.183731 1856.119507 275.960144
-67.491631 1856.119507 28.558929
166.770264 1856.119507 351.270142
42.310272 1856.119507 420.250153
60.683372 1856.119507 416.560150
150.155273 1856.119507 363.960144
88.283371 1856.119507 404.140137
-215.253723 1856.119507 37.463890
-132.983734 1856.119507 -81.638870
-85.333626 1856.119507 -151.822876
-164.703735 1856.119507 -35.015072
-256.813751 1856.119507 95.217926
-200.643723 1856.119507 16.968929
-130.993729 1856.119507 -89.176880
-147.703735 1856.119507 -74.837875
-241.353729 1856.119507 66.555931
-192.563736 1856.119507 -6.966072
-130.403732 1856.119507 -98.343872
-247.083725 1856.119507 76.770927
-157.323730 1856.119507 -59.920872
-243.363724 1856.119507 68.445930
-137.943726 1856.119507 -98.938873
-191.633728 1856.119507 -14.400070
-118.113731 1856.119507 -124.609879
-117.973732 1856.119507 -134.029877
-161.483734 1856.119507 -63.336872
-267.503754 1856.119507 -2.556072
-264.163757 1856.119507 -9.317070
-266.003754 1856.119507 -16.905071
-283.553741 1856.119507 48.127888
-115.123726 1856.119507 -59.986874
-176.693726 1856.119507 29.139929
-198.643723 1856.119507 52.109940
-228.203735 1856.119507 102.413925
-278.393738 1856.119507 179.540131
-126.073730 1856.119507 -44.949070
-290.283752 1856.119507 190.590118
-272.533752 1856.119507 162.800125
-246.973724 1856.119507 119.507935
-272.363739 1856.119507 190.070129
-128.653732 1856.119507 -33.531071
-139.103729 1856.119507 -14.053070
-162.873734 1856.119507 14.606930
-105.303726 1856.119507 -68.582870
-286.303741 1856.119507 197.600128
-216.793732 1856.119507 101.284927
-252.573730 1856.119507 149.810135
-150.893723 1856.119507 -0.609070
-246.983734 1856.119507 168.790131
-138.923737 1856.119507 -6.052071
-191.523727 1856.119507 69.518929
-268.493744 1856.119507 203.600128
-278.923737 1856.119507 209.560120
-200.693726 1856.119507 91.871933
-179.803726 1856.119507 49.796890
-266.813751 1856.119507 190.970123
-230.503723 1856.119507 129.029922
94.888374 1856.119507 -11.387070
57.990372 1856.119507 120.019928
82.721367 1856.119507 35.396931
31.383371 1856.119507 254.180130
102.355270 1856.119507 -67.790878
124.253273 1856.119507 -145.396881
94.775368 1856.119507 -47.427074
41.733372 1856.119507 206.360123
114.517273 1856.119507 -140.504868
92.678368 1856.119507 -37.565067
118.603271 1856.119507 -128.423874
121.784271 1856.119507 -141.226868
96.898369 1856.119507 -70.052872
104.558273 1856.119507 -76.594864
66.944374 1856.119507 104.697929
78.724274 1856.119507 1.994930
29.110371 1856.119507 244.010132
91.506371 1856.119507 -84.011871
75.858368 1856.119507 23.710930
52.202370 1856.119507 127.149933
60.268372 1856.119507 63.160927
94.829369 1856.119507 -96.734879
49.936371 1856.119507 124.739929
38.874371 1856.119507 185.120132
93.128372 1856.119507 -67.855865
77.177368 1856.119507 -4.427071
88.231369 1856.119507 -95.346878
25.959372 1856.119507 254.270126
-1.848680 1856.119507 401.060150
100.366272 1856.119507 -145.962875
76.695374 1856.119507 -56.376072
25.215370 1856.119507 241.690125
79.747368 1856.119507 -91.670868
37.119370 1856.119507 162.760132
88.825371 1856.119507 -137.291870
22.451370 1856.119507 261.520142
90.013374 1856.119507 -152.641876
7.532360 1856.119507 343.800140
53.348370 1856.119507 41.449909
34.456371 1856.119507 190.370132
82.158371 1856.119507 -64.831863
88.934372 1856.119507 -161.232880
54.858372 1856.119507 36.696918
53.910370 1856.119507 50.390888
259.095245 1856.119507 275.090118
138.689270 1856.119507 353.380127
211.702271 1856.119507 307.860138
178.448273 1856.119507 321.080139
226.172272 1856.119507 286.930145
211.253265 1856.119507 298.670135
174.015274 1856.119507 321.580139
222.152267 1856.119507 287.490143
237.866272 1856.119507 276.460144
171.849274 1856.119507 221.550125
204.698273 1856.119507 166.680130
191.421265 1856.119507 197.490128
217.153275 1856.119507 149.150131
162.998276 1856.119507 234.690125
281.457245 1856.119507 54.392929
159.692276 1856.119507 240.000122
266.544250 1856.119507 78.476929
83.545372 1856.119507 350.720154
110.835274 1856.119507 308.690155
109.713272 1856.119507 307.500153
164.110275 1856.119507 223.990128
172.108276 1856.119507 209.230118
262.721252 1856.119507 72.805931
182.268265 1856.119507 191.570129
266.131256 1856.119507 63.382927
254.949265 1856.119507 71.273926
232.403275 1856.119507 89.584930
216.696274 1856.119507 128.199936
217.575272 1856.119507 124.269928
133.558273 1856.119507 260.750122
211.632263 1856.119507 128.809937
110.394272 1856.119507 297.440125
161.337265 1856.119507 214.240128
155.693268 1856.119507 224.590118
151.807266 1856.119507 236.740128
-87.973633 1856.119507 192.520126
-92.573631 1856.119507 258.140137
-93.683632 1856.119507 271.600128
-105.133728 1856.119507 310.900146
-113.703728 1856.119507 379.620148
-106.563728 1856.119507 329.150146
-90.143631 1856.119507 224.820129
-66.272629 1856.119507 60.483929
-61.329628 1856.119507 36.942890
-80.373627 1856.119507 186.970123
-107.563728 1856.119507 344.820129
-95.563629 1856.119507 262.940125
-103.283730 1856.119507 288.690125
-68.663727 1856.119507 93.676926
-83.083626 1856.119507 268.890137
-83.643631 1856.119507 301.530151
-100.753731 1856.119507 393.270142
-94.933632 1856.119507 406.230133
-101.593727 1856.119507 374.950134
-70.890633 1856.119507 155.090134
-91.903633 1856.119507 326.250153
-56.758629 1856.119507 64.338928
-84.513626 1856.119507 300.630127
-35.107628 1856.119507 -138.605881
-78.497627 1856.119507 258.670135
-96.343628 1856.119507 339.710144
-67.691628 1856.119507 101.149933
-71.536629 1856.119507 197.710129
-52.663731 1856.119507 77.614929
-72.592628 1856.119507 284.030121
-45.243629 1856.119507 -15.009071
-49.900730 1856.119507 44.493919
-84.603630 1856.119507 406.350128
-74.406631 1856.119507 257.420135
-49.679630 1856.119507 30.120930
-51.637730 1856.119507 31.169930
-61.808628 1856.119507 122.139923
-78.734627 1856.119507 365.790131
-41.405628 1856.119507 -47.925068
-83.113632 1856.119507 371.770142
-73.080627 1856.119507 273.530121
-65.934631 1856.119507 152.470123
-157.013733 1856.119507 -78.287872
-164.703735 1856.119507 -64.371872
-127.223732 1856.119507 -134.225876
-247.133728 1856.119507 67.655930
-200.833725 1856.119507 -12.708073
-259.463745 1856.119507 84.432930
-201.993729 1856.119507 -19.021072
-190.043732 1856.119507 -40.688068
-144.853729 1856.119507 -114.687881
-227.613724 1856.119507 30.594929
-151.613724 1856.119507 -117.683868
-248.523727 1856.119507 58.924927
-179.243729 1856.119507 -65.192871
-167.893723 1856.119507 -93.753876
-189.073730 1856.119507 -48.637074
76.189369 1856.119507 -125.416870
24.280371 1856.119507 195.630127
63.329372 1856.119507 -35.612072
15.597371 1856.119507 268.870148
26.722370 1856.119507 208.210129
39.832371 1856.119507 104.066925
79.494370 1856.119507 -127.560867
57.351372 1856.119507 -22.374073
46.318371 1856.119507 79.675934
50.865372 1856.119507 21.548929
66.917374 1856.119507 -109.022873
61.697372 1856.119507 -66.711868
82.668373 1856.119507 -167.222870
43.570370 1856.119507 88.267929
50.668369 1856.119507 -2.238071
64.995369 1856.119507 -170.745880
23.269371 1856.119507 177.950119
0.873367 1856.119507 360.070129
11.457371 1856.119507 257.430145
1.768330 1856.119507 351.940155
36.717369 1856.119507 37.136917
46.069370 1856.119507 3.387928
42.879372 1856.119507 -42.001072
20.347370 1856.119507 185.270126
55.747372 1856.119507 -84.511871
45.460369 1856.119507 -65.086868
55.054371 1856.119507 -149.802872
26.286371 1856.119507 174.240128
34.990372 1856.119507 107.309937
54.487270 1856.119507 -55.261074
13.696371 1856.119507 220.960129
25.541370 1856.119507 40.955891
37.395370 1856.119507 -29.421070
27.311371 1856.119507 72.763931
34.306370 1856.119507 -75.699875
37.633369 1856.119507 -84.166870
41.086269 1856.119507 -97.816879
33.278370 1856.119507 41.310932
11.926371 1856.119507 246.420120
46.150372 1856.119507 -161.073868
5.246350 1856.119507 285.140137
31.226370 1856.119507 17.823929
29.886370 1856.119507 27.114929
43.986370 1856.119507 -175.968872
-289.103760 1856.119507 71.401932
-289.503754 1856.119507 51.784927
-228.063736 1856.119507 141.049927
-112.503731 1856.119507 -38.984074
-153.093735 1856.119507 24.143929
-146.183731 1856.119507 13.155930
-104.613731 1856.119507 -54.046070
-273.313751 1856.119507 223.480118
-280.903748 1856.119507 228.900131
-166.453735 1856.119507 45.578938
-253.243729 1856.119507 200.970123
-222.493729 1856.119507 157.630127
-181.353729 1856.119507 93.304932
-147.043732 1856.119507 31.349930
-140.493729 1856.119507 10.973928
-256.213745 1856.119507 216.340118
-227.013733 1856.119507 162.340134
-199.273727 1856.119507 113.915924
-104.613731 1856.119507 -45.290073
-261.243744 1856.119507 219.470123
-253.453735 1856.119507 205.630127
-138.313736 1856.119507 19.591928
-177.793732 1856.119507 91.400925
-122.303726 1856.119507 -9.313072
-247.293732 1856.119507 227.390121
-165.563736 1856.119507 66.242928
-173.033722 1856.119507 88.148926
-257.453735 1856.119507 246.810120
-91.413727 1856.119507 -62.683872
-162.653732 1856.119507 73.676926
-260.923737 1856.119507 244.730118
170.517273 1856.119507 356.240143
117.331268 1856.119507 390.370148
163.401276 1856.119507 363.680145
214.781265 1856.119507 331.160126
201.720276 1856.119507 341.630127
225.904266 1856.119507 275.050140
137.617264 1856.119507 345.080139
249.659271 1856.119507 256.410126
158.033264 1856.119507 327.490143
227.791275 1856.119507 263.010132
74.506371 1856.119507 391.670135
276.181244 1856.119507 225.330124
105.183273 1856.119507 366.280151
275.209259 1856.119507 220.260132
279.152252 1856.119507 218.020126
289.566254 1856.119507 200.670120
190.520264 1856.119507 290.340118
29.425371 1856.119507 -91.957870
33.409370 1856.119507 -73.999878
12.794371 1856.119507 163.690125
23.539371 1856.119507 -40.764072
37.091370 1856.119507 -135.767868
23.815371 1856.119507 -50.191074
16.303371 1856.119507 125.679932
12.009371 1856.119507 187.930130
31.830370 1856.119507 -151.796875
29.447371 1856.119507 -97.468872
29.344370 1856.119507 -56.769070
23.053371 1856.119507 13.759930
19.540371 1856.119507 63.944931
24.802370 1856.119507 -78.662872
25.616371 1856.119507 -61.207874
15.180370 1856.119507 -155.229874
13.714371 1856.119507 -63.828869
