ply
format ascii 1.0
element vertex 1370
property float x
property float y
property float z
end_header
-906.056091 77.149490 287.536011
-902.109131 113.209518 300.691040
-906.558105 95.119492 288.887024
-900.103088 82.359512 300.202026
-900.131104 56.419510 296.770020
-892.844116 23.699509 305.611023
-900.708130 116.279495 303.727020
-888.698120 -7.470490 308.470032
-890.387146 -1.580490 306.399017
-887.601135 54.689499 319.548035
-890.984131 94.159500 319.457031
-876.732117 -34.540497 325.537018
-874.145142 -104.940491 319.953003
-869.962097 -141.400696 321.903015
-872.140137 -75.560501 327.659027
-934.794128 -363.160492 212.395523
-931.410095 -387.720490 217.620621
-928.442139 -341.560486 222.822525
-928.431091 -455.290497 221.120621
-929.877136 -435.090515 219.393616
-928.294128 -477.900513 220.909622
-921.802124 -355.720490 232.516525
-919.613098 -379.940491 235.242615
-919.200134 -334.860504 236.654526
-902.855103 -478.530518 253.815613
-915.902100 -389.560486 239.914612
-916.833130 -432.370483 237.525513
-914.971130 -358.050476 241.981522
-909.360107 -351.760498 249.585526
-902.615112 -455.160492 254.838623
-910.845093 -350.660492 247.621521
-900.524109 -381.460510 260.283508
-898.471130 -421.850494 261.501526
-895.804138 -247.800797 274.319031
-896.750122 -265.950684 271.758026
-891.242126 -306.860596 275.916016
-884.888123 -324.640686 282.812012
-885.659119 -238.970749 288.282013
-881.558105 -268.310791 291.877014
-877.647095 -270.310791 296.946045
-880.938110 -311.740784 289.094025
-871.576111 -203.820892 311.893005
-874.840088 -255.400696 301.935028
-871.212097 -191.600586 313.635010
-863.422119 -300.270813 313.824036
-867.057129 -237.170700 315.016022
-866.944092 -256.580902 313.275024
-955.237122 188.379501 153.672623
-955.444092 186.089493 151.769516
-954.965088 245.339493 155.625626
-908.465088 -268.680695 -234.936981
-912.148132 -147.810791 -209.947968
-910.152100 -174.290802 -223.903992
-909.898132 -150.340897 -228.661987
-913.737122 28.699509 -217.276978
-913.112122 -1.730499 -218.262970
-916.063110 43.229507 -201.326965
-916.129089 76.139511 -205.436981
-915.285095 46.759506 -207.621979
-914.983093 61.009506 -211.949982
-924.858093 137.949509 -157.681976
-924.812134 136.129501 -157.800964
-922.960144 129.329514 -168.505981
-922.461121 64.439499 -163.708984
-923.922119 102.739517 -159.570984
-919.754089 63.369492 -179.898987
-923.537109 52.629501 -155.783966
-924.391113 84.699509 -154.543976
-922.795105 80.509506 -163.656982
-923.389099 101.409500 -162.618988
-919.130127 81.849503 -186.013977
-917.469116 37.289505 -191.175964
-919.220093 30.319504 -179.229980
-917.601135 7.919510 -186.798981
-918.164124 63.509506 -189.927979
-917.225098 60.659500 -195.572968
-937.826111 168.999496 -89.578979
-935.729126 158.859512 -100.345978
-934.018127 189.029495 -111.505981
-937.331116 139.459518 -90.458984
-932.595093 144.609512 -115.832977
-932.741089 142.069504 -114.804962
-940.737122 207.949509 -75.675980
-942.003113 149.269516 -65.317978
-946.525146 146.439499 -40.331970
-940.481140 145.799515 -73.495972
-942.864136 158.549515 -61.065979
-946.466125 211.949509 -42.806976
-947.005127 177.479507 -38.953979
-950.844116 211.769516 -14.314972
-950.507141 146.079514 -16.379974
-948.966125 181.769516 -26.896973
-948.607117 178.089493 -29.242981
-955.581116 2.439499 10.615021
-957.130127 53.309494 25.005020
-956.785095 60.219498 22.696030
-955.783142 17.439499 12.902023
-958.318115 6.269501 31.806030
-957.338135 -8.600494 23.552017
-956.882141 88.949509 24.851028
-958.522095 243.779495 63.603020
-958.514099 246.399490 64.372025
-958.371094 216.369492 56.415024
-957.754089 236.439499 50.142021
-958.060120 196.359512 48.289024
-958.169128 207.039505 51.736023
-960.056091 86.949509 61.252022
-959.045105 161.109512 57.770020
-957.319092 219.039505 41.093025
-959.583130 87.979507 54.536026
-958.521118 137.719498 46.836021
-960.529114 19.919510 58.566025
-960.450134 15.959503 57.076019
-958.115112 137.509506 41.606026
-958.973145 38.869492 40.871025
-957.079102 239.409500 40.501022
-957.579102 148.109512 36.791016
-956.142090 183.269516 25.536026
-956.777100 119.679520 25.882019
-957.585144 83.599503 30.640030
-957.201111 205.689499 38.489029
-957.969116 79.439499 34.154022
-958.878113 252.819504 80.612625
-959.935120 131.679520 69.106522
-959.230103 198.359512 70.854622
-958.624146 248.879501 69.519524
-959.825134 152.509506 73.731522
-960.314087 128.529495 84.132523
-961.531128 -9.540497 69.238525
-960.295105 140.949509 91.877525
-961.526123 22.849503 92.507523
-960.854126 65.499496 76.303520
-960.581116 98.519516 81.112625
-960.615112 91.249496 78.183525
-960.853088 69.879501 79.411621
-959.104126 248.479507 92.149521
-959.687134 197.419510 91.505623
-959.423096 201.419510 105.380623
-959.681091 184.449509 101.133621
-959.287109 220.209518 100.633621
-959.960144 151.129501 106.466621
-960.312134 82.509506 110.717522
-961.119141 27.089493 105.636520
-960.785095 51.959518 107.454521
-960.361145 102.639511 106.991524
-960.674133 46.239517 110.102524
-960.570129 -15.080490 120.705521
-958.940125 155.149490 122.690628
-958.393127 249.349503 117.902527
-959.267090 97.429520 125.770523
-958.057129 214.509506 128.783524
-958.489136 170.179520 128.084518
-958.929138 63.399490 132.517517
-957.909119 122.069504 137.256531
-959.033142 1.579498 135.227524
-958.019104 106.249496 137.282516
-956.568115 85.379501 148.191528
-956.931091 91.219498 145.459518
-957.477112 212.999496 135.449524
-958.112122 31.099503 140.720520
-956.576111 221.169510 141.039627
-952.567139 134.929520 168.195587
-951.679138 187.829514 174.258575
-954.363098 151.199509 160.115570
-953.961121 237.019516 162.863556
-944.751099 -61.480499 195.634521
-943.581116 -68.480499 198.913528
-939.787109 -208.100601 205.148621
-939.747131 -149.470795 206.516525
-942.022095 -99.030502 202.367615
-937.683105 -368.490479 206.937622
-937.038147 -332.460693 208.633621
-935.992126 -524.070496 209.602524
-947.598145 -720.050476 195.079529
-953.080139 -837.280518 192.922623
-951.232117 -804.730530 193.720520
-958.112122 -897.060486 188.343521
-965.894104 -931.950500 172.959564
-968.217102 -940.370483 166.088593
-967.878113 -875.240540 158.600555
-970.699097 -807.410522 136.456619
-974.059143 -905.740540 130.296524
-971.217102 -845.600525 139.624527
-972.314087 -914.880493 143.585526
-968.809143 -871.110535 154.636520
-974.215088 -837.590515 100.639526
-975.474121 -916.450500 98.736526
-975.552124 -927.560486 114.539627
-975.380127 -912.110535 111.322525
-974.757141 -885.850525 111.982620
-973.374146 -832.920532 115.679520
-974.805115 -921.660522 124.928528
-972.588135 -821.730530 125.436523
-974.496094 -899.220520 83.704521
-974.998108 -899.430481 92.989525
-975.589111 -927.940491 95.558525
-973.795105 -872.420532 77.574524
-972.922119 -831.540527 71.188522
-974.079102 -890.420532 78.122620
-973.285095 -833.560486 78.667526
-972.853088 -838.000488 68.270523
-973.144104 -921.520508 60.677025
-972.751099 -842.880493 66.620026
-971.220093 -824.330505 54.322021
-971.135132 -858.250488 49.164024
-971.836121 -843.630493 57.464020
-972.006104 -824.630493 61.471024
-969.522095 -825.640503 38.735016
-967.386108 -889.750488 15.635025
-969.736145 -891.620483 33.652023
-967.669128 -927.370483 13.987030
-968.130127 -902.420532 20.113022
-969.325134 -882.940491 31.358017
-965.581116 -819.500488 11.719025
-966.199097 -889.210510 7.517029
-967.412109 -820.400513 23.978027
-963.072144 -890.760498 -12.339981
-965.646118 -911.870483 1.276016
-963.167114 -890.010498 -11.662979
-943.920105 -891.660522 -141.166992
-943.196106 -875.390503 -139.091980
-951.422119 -930.960510 -103.250977
-950.366089 -919.310486 -105.773987
-945.487122 -872.530518 -122.767975
-944.819092 -873.980530 -127.490967
-953.528137 -924.610535 -85.010971
-959.829102 -881.290527 -33.095978
-954.410095 -892.620483 -70.160980
-956.356140 -897.310486 -58.991974
-960.986145 -915.150513 -31.390976
-961.008118 -914.360535 -31.098984
-959.896118 -914.290527 -38.989975
-963.743103 -924.120483 -13.403976
-961.587097 -879.940491 -20.744980
-930.773132 -827.520508 -202.492981
-933.053101 -878.180481 -217.085968
-937.335144 -919.600525 -205.557983
-936.991089 -877.550537 -182.624969
-935.235107 -868.880493 -191.500977
-937.224121 -887.000488 -186.523987
-934.227112 -861.320496 -195.007965
-923.700134 -794.960510 -238.969971
-925.438110 -813.980530 -236.772980
-929.579102 -869.480530 -241.080963
-928.462097 -865.220520 -249.341980
-932.538147 -914.450500 -251.001984
-913.960144 -643.800476 -245.162964
-916.428101 -684.630493 -241.121979
-920.374146 -740.220520 -234.911987
-923.608093 -783.470520 -231.345978
-918.525146 -732.510498 -249.186981
-922.877136 -788.190491 -242.377991
-909.883118 -491.060486 -233.787964
-910.687134 -530.990479 -236.330963
-911.409119 -559.410522 -236.039978
-913.197144 -591.880493 -229.786987
-913.327087 -613.380493 -237.520966
-913.377136 -630.590515 -244.257965
-908.375122 -341.410492 -233.191986
-909.241089 -425.310486 -229.440979
-908.348145 -448.390503 -242.796967
-909.368103 -482.750488 -237.924988
-955.260132 20.759506 9.049026
-954.971130 41.999496 8.055023
-951.934143 169.859512 -6.106979
-954.451111 8.549500 3.346024
-954.359131 15.639511 3.047028
-952.861145 96.039505 -3.225983
-954.976135 45.259506 8.222015
-953.256104 11.689499 -3.671982
-952.268127 -3.420502 -9.764984
-951.662109 -2.160492 -13.278976
-951.355103 84.479507 -13.244980
-947.438110 109.009506 -34.707977
-942.688110 86.819504 -61.240982
-946.202087 92.309494 -41.832977
-942.191101 101.199509 -63.686981
-948.731140 65.069504 -28.480972
-947.579102 82.789505 -34.457977
-940.637146 125.789505 -71.730972
-947.568115 11.009506 -35.811981
-944.645142 15.529510 -49.990982
-947.115112 -1.410492 -37.603973
-946.356140 27.479507 -42.136978
-940.781128 78.769516 -70.483978
-938.905090 -19.330490 -76.498978
-940.221130 82.879501 -73.299973
-931.968140 108.419510 -116.713989
-930.016113 121.929520 -127.364990
-932.885132 125.259506 -112.486969
-936.280090 32.569504 -91.657990
-930.991089 114.149490 -122.008972
-936.687134 91.789505 -91.512970
-935.045105 54.199509 -98.833984
-932.510132 63.709518 -112.390991
-927.157104 36.079514 -135.418976
-930.307129 65.799515 -122.945984
-929.833130 92.269516 -127.058990
-935.334106 -5.610489 -94.450989
-931.904114 31.169510 -113.032990
-927.604126 91.329514 -137.335968
-932.082092 43.509506 -113.096985
-928.209106 116.869492 -136.376984
-926.726135 57.719498 -139.033966
-924.265137 49.559494 -151.349976
-921.499146 -22.470490 -160.006989
-925.612122 -2.580490 -139.938965
-961.351135 -799.380493 -11.812973
-959.812134 -800.160522 -21.041977
-959.705139 -814.530518 -23.360977
-960.377136 -836.820496 -22.248978
-954.140137 -822.410522 -55.434982
-960.538147 -852.850525 -23.253983
-956.496094 -848.010498 -46.248978
-952.465088 -835.930481 -68.923981
-956.469116 -854.690491 -47.994980
-954.349121 -826.650513 -54.817978
-939.394104 -795.390503 -135.004974
-950.064087 -824.170532 -81.226974
-941.878113 -800.100525 -122.072968
-949.979126 -858.170532 -88.774979
-943.324097 -851.070496 -129.276978
-951.039124 -864.700500 -84.209976
-946.700134 -859.900513 -110.588989
-942.843140 -861.640503 -136.205963
-927.542114 -635.720520 -157.915985
-928.442139 -628.880493 -152.622986
-928.924133 -608.800476 -147.404968
-927.705139 -546.560486 -144.174988
-932.028137 -550.120483 -124.723969
-933.784119 -569.420471 -119.388977
-929.670105 -516.990479 -130.886963
-929.871094 -580.290466 -138.764984
-931.240112 -565.640503 -130.478973
-935.011108 -600.480469 -118.102966
-940.810120 -611.040466 -93.091980
-932.740112 -579.850525 -125.604980
-940.150146 -551.540466 -90.370972
-942.911133 -584.040466 -81.856979
-936.587097 -520.990479 -102.361969
-939.808105 -527.370483 -89.633972
-929.928101 -488.710510 -126.984985
-939.137146 -521.550476 -91.886963
-936.767090 -558.290466 -104.932983
-939.376099 -594.810486 -97.404968
-919.730103 -439.740479 -168.101990
-921.058105 -352.820496 -156.296967
-922.019104 -385.770508 -154.134979
-921.432129 -364.550476 -155.382965
-919.227112 -464.500488 -172.660980
-915.074097 -365.950500 -187.439972
-916.868103 -408.410492 -181.045990
-914.716125 -348.070496 -187.964966
-913.460144 -387.660492 -196.254974
-912.960144 -350.550476 -197.243988
-913.896118 -446.770508 -197.912964
-917.574097 -482.980499 -182.258972
-915.868103 -493.760498 -192.394989
-918.235107 -492.170471 -180.037964
-919.360107 -546.940491 -182.853973
-921.150146 -517.000488 -169.470978
-917.348145 -556.670471 -194.066986
-918.685120 -547.120483 -186.121979
-921.412109 -505.920471 -166.621979
-925.903137 -517.450500 -148.341980
-926.209106 -521.910522 -147.641968
-924.793091 -588.570496 -163.846985
-924.258118 -430.080505 -147.136963
-922.798096 -417.740479 -152.786987
-924.255127 -485.120483 -150.939972
-925.237122 -408.740479 -141.309967
-933.417114 -463.380493 -110.894989
-930.452087 -465.220490 -123.252991
-928.252136 -482.460510 -133.435974
-930.471130 -430.380493 -120.945984
-932.613098 -423.350494 -111.656982
-927.629089 -380.650513 -129.503967
-928.105103 -431.990479 -130.815979
-928.018127 -429.440491 -131.014984
-933.466125 -336.570496 -103.193970
-927.828125 -359.140503 -127.336975
-927.222107 -355.270508 -129.575989
-928.922119 -334.030792 -121.483978
-938.407104 -460.670502 -90.125977
-934.688110 -409.050476 -102.308990
-934.173096 -411.060486 -104.513977
-936.536133 -378.070496 -93.070984
-952.787109 -333.230804 -22.521973
-951.087097 -356.890503 -30.886978
-950.526123 -399.500488 -35.425980
-952.096130 -409.600494 -29.332977
-953.484131 -412.950500 -23.659973
-946.242126 -371.220490 -52.011978
-953.829102 -433.490479 -23.255981
-953.720093 -435.340515 -23.809982
-946.880127 -465.080505 -54.592972
-942.076111 -365.580505 -69.290970
-946.738098 -463.710510 -55.120972
-948.090088 -485.030518 -50.588974
-941.807129 -409.340515 -73.047974
-950.449097 -454.590515 -38.662979
-952.746094 -470.100494 -29.726974
-942.148132 -416.290497 -71.995972
-955.474121 -535.430481 -21.884979
-953.426086 -557.350525 -31.965973
-953.905090 -498.390503 -26.431976
-953.044128 -496.100525 -29.989975
-954.997131 -495.000488 -21.546982
-949.899109 -536.890503 -45.888977
-951.862122 -531.810486 -37.169983
-948.521118 -527.550476 -51.249985
-945.223145 -579.010498 -70.685974
-949.357117 -580.710510 -51.446976
-947.165100 -629.140503 -66.626984
-947.228088 -551.140503 -58.454971
-942.412109 -504.080505 -76.321976
-945.604126 -564.970520 -67.479980
-943.662109 -565.180481 -76.622971
-951.589111 -658.290466 -49.343979
-947.435120 -683.010498 -72.066971
-952.424133 -671.580505 -47.150970
-948.756104 -670.520508 -64.238983
-944.000122 -640.420471 -82.598984
-943.867126 -659.570496 -85.625977
-944.394104 -690.150513 -87.088974
-938.018127 -645.180481 -110.513977
-938.394104 -713.450500 -120.648987
-935.121094 -662.750488 -126.375977
-936.675110 -698.110474 -126.014984
-940.920105 -715.700500 -108.521973
-934.016113 -708.940491 -141.449982
-929.634094 -662.000488 -152.985992
-934.870117 -827.480530 -174.223969
-931.753113 -802.870483 -183.224976
-931.049133 -815.940491 -192.970978
-932.084106 -754.770508 -166.490967
-931.470093 -780.250488 -177.329987
-932.653137 -721.790466 -152.548981
-929.851135 -759.460510 -180.392975
-930.503113 -767.820496 -179.742981
-932.800110 -723.930481 -152.490967
-928.919128 -699.800476 -166.210968
-932.145142 -714.780518 -152.982971
-926.674133 -672.020508 -170.692963
-927.950134 -686.170471 -167.695984
-920.769104 -651.850525 -196.380981
-921.573120 -653.450500 -192.600983
-919.683105 -630.570496 -196.795990
-920.699097 -605.540466 -186.176971
-929.565125 -853.880493 -228.142975
-925.783142 -807.310486 -227.631989
-929.640137 -826.680481 -211.199982
-934.498108 -911.580505 -226.680969
-923.946106 -772.020508 -222.112976
-924.778137 -785.590515 -222.719971
-927.783142 -783.320496 -199.942963
-925.759094 -768.120483 -207.086975
-920.299133 -697.250488 -214.790985
-920.170105 -698.030518 -215.945984
-920.688110 -685.050476 -207.796967
-922.026123 -688.060486 -200.056976
-916.608093 -633.250488 -217.293976
-914.777100 -616.860474 -225.036987
-915.612122 -574.760498 -208.466980
-913.931091 -566.000488 -217.273987
-912.653137 -529.800476 -219.187988
-913.809143 -558.650513 -216.494965
-914.631104 -502.780518 -200.611969
-913.726135 -509.630493 -208.187988
-910.535095 -469.590515 -223.989990
-910.907104 -466.870483 -221.154968
-912.530090 -429.100494 -205.484985
-913.000122 -446.140503 -204.187988
-909.420105 -365.310486 -224.245972
-910.226135 -375.140503 -218.687988
-911.613098 -370.920502 -208.149963
-910.084106 -348.810486 -218.709991
-956.865112 -369.980499 162.621552
-954.320129 -333.600586 169.740570
-956.349121 -449.080505 166.533539
-955.084106 -424.050476 169.739532
-951.571106 -385.620483 178.289627
-952.146118 -386.250488 176.777557
-954.601135 -468.170502 172.041534
-950.307129 -388.430481 181.511520
-946.550110 -363.080505 189.763626
-945.378113 -371.420502 192.390518
-944.735107 -476.070496 193.904526
-947.178101 -478.610474 189.109619
-940.429138 -417.280518 202.041519
-939.493103 -403.430481 203.665527
-940.165100 -476.310486 202.399521
-960.303101 -500.930481 156.180527
-957.014099 -493.250488 165.774567
-956.896118 -560.430481 169.130585
-958.318115 -562.020508 165.030548
-953.677124 -541.880493 176.396576
-954.096130 -489.970490 173.568573
-952.604126 -596.910522 180.601624
-954.554138 -584.720520 175.775543
-944.984131 -503.200500 193.820618
-945.132141 -502.290466 193.506531
-944.928101 -611.120483 196.122620
-946.710144 -602.320496 192.652527
-941.122131 -517.420471 201.136520
-965.542114 -472.260498 131.040527
-963.129089 -416.780518 140.430527
-963.887146 -355.870483 131.200623
-965.712097 -396.120483 121.212524
-965.753113 -410.410492 123.163521
-964.641113 -350.450500 126.059525
-967.538147 -463.170502 111.098526
-965.246094 -334.180695 115.738525
-966.927124 -392.990479 106.000626
-966.927124 -399.220490 107.151627
-968.247131 -457.780518 101.789619
-966.836121 -361.710510 73.766525
-967.332092 -375.830505 91.908524
-967.165100 -366.010498 90.717522
-959.625122 -385.330505 8.472015
-962.118103 -406.690491 22.961029
-961.536133 -485.170502 13.058029
-960.632141 -344.140503 18.215027
-962.319092 -412.530518 23.811020
-962.706116 -530.230469 17.124023
-962.447144 -515.900513 16.562027
-961.859131 -547.930481 10.257019
-964.465088 -445.230499 34.975021
-963.768127 -492.620483 26.841019
-965.518127 -502.280518 37.169022
-963.633118 -595.060486 17.941025
-966.626099 -586.400513 37.580017
-965.861145 -601.740479 31.533020
-963.522095 -440.120483 29.403015
-965.714111 -592.290466 31.342026
-965.846130 -453.040497 46.750023
-965.384094 -337.540497 57.041023
-966.303101 -476.250488 48.568024
-965.207092 -435.060486 42.296021
-966.371094 -471.790497 49.874023
-965.973145 -395.610474 55.674026
-965.667114 -424.150513 48.644020
-967.101135 -581.990479 43.143021
-966.913147 -406.720490 63.773026
-966.765137 -433.080505 59.014023
-966.776123 -413.440491 61.629021
-968.696106 -621.330505 53.143021
-969.134094 -624.910522 56.805023
-966.946106 -445.620483 59.118019
-967.403137 -458.730499 61.743019
-966.500122 -345.430481 68.714523
-968.798096 -475.120483 91.132523
-966.674133 -357.610504 69.105522
-967.136108 -384.330505 73.242622
-966.723145 -359.080505 70.306526
-968.821106 -494.960510 81.095520
-968.140137 -440.750488 83.172623
-967.785095 -426.030518 76.752525
-969.271118 -501.950500 95.339523
-970.262146 -570.800476 95.020523
-970.502136 -617.750488 80.095520
-970.631104 -608.360474 89.069519
-968.824097 -524.360474 106.360519
-968.733093 -514.730469 105.790527
-969.605103 -576.620483 106.063522
-969.342102 -542.920471 103.417526
-969.468140 -601.230469 112.701523
-969.802124 -596.480469 107.358521
-966.979126 -504.240479 124.907524
-968.707092 -604.040466 123.195618
-965.112122 -514.920471 137.011520
-965.451111 -493.130493 133.185623
-966.445129 -576.650513 135.107620
-966.216125 -619.610474 140.327515
-944.047119 -650.470520 198.723526
-951.216125 -664.390503 185.996521
-952.700134 -699.020508 184.679520
-956.361145 -678.020508 175.167572
-961.386108 -704.980469 163.492584
-962.188110 -653.570496 157.881561
-964.868103 -696.080505 151.697525
-963.855103 -629.080505 150.356522
-964.594116 -634.050476 147.763626
-962.983093 -551.880493 148.994522
-965.429138 -581.030518 141.131531
-959.604126 -415.120483 155.084518
-961.724121 -470.390503 149.099625
-961.272095 -391.330505 147.153519
-961.886108 -406.110474 145.331619
-960.017090 -865.700500 180.407516
-961.682129 -802.850525 170.668549
-964.860107 -857.090515 166.568573
-965.128113 -826.480530 162.204559
-966.848145 -803.410522 154.374527
-953.883118 -790.330505 187.464523
-951.853088 -753.040527 189.104614
-960.266113 -788.600525 172.896576
-958.520142 -733.300476 173.264557
-963.381104 -772.390503 162.683563
-960.941101 -725.700500 166.268585
-967.455139 -789.800537 150.063522
-967.092102 -702.040466 143.461624
-964.857117 -706.180481 152.572525
-969.381104 -749.690491 136.799622
-970.097107 -742.410522 131.100525
-970.041138 -704.570496 127.401627
-970.848145 -743.720520 126.982620
-971.854126 -745.850525 110.998520
-972.270142 -791.450500 119.082520
-969.954102 -679.760498 123.303528
-972.917114 -782.020508 103.828621
-969.489136 -652.560486 122.854622
-971.609131 -711.780518 106.288521
-969.672119 -649.500488 119.889526
-971.908142 -719.840515 84.350525
-971.885132 -720.850525 83.501526
-972.303101 -783.800537 72.695625
-972.478088 -774.160522 79.698624
-971.088135 -645.080505 87.032524
-971.256104 -710.290466 67.550522
-971.039124 -649.970520 83.488525
-971.038147 -673.060486 74.544624
-969.278137 -776.820496 42.293022
-969.829102 -707.340515 54.575020
-969.790100 -775.700500 47.093025
-971.187134 -763.800537 61.103020
-967.978088 -696.760498 38.241028
-967.990112 -642.800476 43.836021
-968.807129 -732.540466 42.404022
-969.202087 -716.960510 47.706024
-966.080139 -741.460510 22.017029
-968.130127 -792.530518 32.145020
-968.785095 -788.020508 36.895020
-965.057129 -650.670471 22.576019
-963.397095 -674.160522 10.180023
-965.814087 -665.040466 26.223022
-964.507141 -759.440491 10.374023
-962.797119 -689.460510 5.343018
-963.810120 -762.580505 5.864029
-962.940125 -736.080505 2.691025
-961.474121 -787.400513 -9.862976
-909.118103 -228.610641 -230.235992
-910.348145 -263.110596 -217.882965
-909.452087 -271.800781 -225.014984
-911.963135 -190.740799 -207.633972
-910.368103 -220.130692 -219.693970
-912.880127 -202.500793 -199.630981
-912.364136 -303.200684 -200.898987
-910.863098 -319.100586 -212.091980
-916.441101 -181.000793 -178.504974
-914.809143 -240.090866 -187.010986
-913.669128 -194.500793 -194.726990
-916.997131 -180.280792 -175.209991
-914.753113 -298.850586 -186.602966
-917.624146 -299.410706 -170.940979
-917.136108 -297.000793 -173.612976
-917.523132 -320.410706 -171.436981
-918.522095 -267.900696 -166.411987
-919.219116 -238.090866 -163.092987
-920.414124 -270.080902 -157.225983
-918.882141 -212.090897 -164.785980
-923.248108 -321.780792 -144.901978
-923.704102 -259.940704 -142.169983
-923.394104 -330.280792 -144.330963
-925.756104 -295.880707 -133.635986
-926.082092 -248.070892 -131.763977
-933.686096 -219.370697 -99.182983
-930.045105 -208.200699 -114.530975
-926.246094 -274.860596 -131.339966
-935.748108 -184.030792 -90.066986
-924.765137 -202.990799 -136.897980
-925.207092 -218.130692 -135.177979
-930.615112 -281.280792 -113.151978
-937.715088 -326.430695 -85.561981
-929.445129 -295.970795 -118.294983
-927.612122 -297.390686 -125.767975
-933.859131 -265.920685 -99.576965
-938.370117 -310.130676 -82.464981
-934.675110 -320.820892 -97.743988
-933.448120 -236.560837 -100.454987
-945.723145 -234.200729 -48.197983
-938.467102 -222.010788 -79.661972
-942.258118 -190.070892 -62.113983
-940.401123 -239.430710 -71.685974
-949.128113 -207.990799 -32.505981
-939.357117 -204.530792 -75.253983
-941.367126 -228.410690 -67.133972
-947.209106 -215.390701 -41.136978
-949.259094 -270.570892 -34.651978
-951.432129 -303.720795 -26.940979
-947.668091 -255.940689 -40.716980
-951.454102 -251.880692 -24.600983
-942.499146 -315.340881 -65.045975
-950.757141 -325.860596 -30.743973
-941.893127 -322.180695 -67.894974
-950.636108 -270.170685 -28.838974
-952.725098 -266.840881 -19.661972
-956.165100 -332.110596 -5.729980
-956.916138 -307.300781 -0.680984
-955.321106 -292.010803 -7.907974
-955.280090 -421.280518 -15.598984
-956.619141 -398.590515 -7.489975
-956.630127 -376.880493 -6.113983
-958.008118 -351.920502 2.334030
-957.142090 -428.000488 -6.646973
-958.757141 -432.970490 1.174026
-957.370117 -440.380493 -6.252975
-959.095093 -479.600494 0.045029
-958.471130 -548.910522 -7.304977
-956.255127 -441.780518 -11.945984
-960.257141 -455.410492 7.357025
-955.870117 -532.810486 -19.734970
-958.919128 -599.840515 -8.539978
-957.379089 -626.460510 -18.564972
-957.121094 -610.680481 -18.780975
-959.033142 -678.970520 -14.295975
-958.627136 -703.790466 -18.623978
-961.758118 -665.970520 1.184021
-957.401123 -655.290466 -20.786972
-950.235107 -737.350525 -63.795975
-955.273132 -702.480469 -35.505981
-958.281128 -724.790466 -22.256973
-954.132141 -674.680481 -38.900970
-953.404114 -742.730469 -48.306976
-949.528137 -716.160522 -65.565979
-956.959106 -716.940491 -28.242981
-956.057129 -719.140503 -32.966980
-949.731140 -791.390503 -76.319977
-947.402100 -723.250488 -77.071976
-954.009094 -788.460510 -51.854980
-952.958130 -785.150513 -57.141983
-940.054138 -723.970520 -114.185974
-948.624146 -788.790527 -81.857971
-941.063110 -735.030518 -110.930969
-940.683105 -742.720520 -114.061981
-939.228088 -792.130493 -135.206970
-939.719116 -785.340515 -130.586975
-944.701111 -772.820496 -99.232971
-944.203125 -789.340515 -106.571991
-934.167114 -789.530518 -163.562988
-935.849121 -776.260498 -150.085968
-937.228088 -806.000488 -151.057983
-937.274109 -812.110535 -152.759979
-937.211121 -826.600525 -158.198975
-941.269104 -892.380493 -160.754974
-942.646118 -876.860535 -143.852966
-946.899109 -8.390488 190.414627
-947.341125 58.389511 189.963623
-949.235107 100.559494 184.065628
-948.738098 37.079514 185.163528
-953.151123 22.189499 167.233551
-952.765137 30.489517 168.911591
-953.648132 71.379501 163.942535
-952.678101 33.579514 169.270538
-953.625122 -1.930496 165.644562
-954.675110 3.149506 160.870575
-957.127136 23.379501 147.508621
-957.732117 -16.360489 145.282516
-940.359131 -313.710693 202.793518
-938.501099 -243.560837 207.248520
-940.987122 -240.660690 202.328613
-942.172119 -282.640686 199.543518
-946.879089 -310.230804 189.010620
-947.079102 -209.940689 188.777527
-945.615112 -237.510788 192.335526
-943.659119 -156.480804 197.132523
-946.518127 -125.310493 190.173523
-952.765137 -314.050781 173.984589
-952.218140 -270.810791 175.446564
-951.118103 -193.850586 178.383621
-953.229126 -316.220795 172.753571
-954.083130 -326.330902 170.410553
-952.512146 -121.670494 172.649567
-952.866089 -206.360596 172.773590
-951.201111 -79.890488 176.623566
-953.369141 -84.570496 169.113556
-955.297119 -214.440689 164.674591
-955.820129 -194.550797 162.635590
-954.008118 -121.900497 167.555573
-955.782104 -72.920502 158.376556
-953.229126 -56.520493 169.089569
-956.490112 -201.400696 159.943573
-956.290100 -190.400696 160.423553
-960.351135 -289.270782 146.271622
-960.256104 -269.490784 145.974625
-958.308105 -208.520798 152.232620
-959.457092 -268.990784 149.418518
-957.628113 -37.040497 146.882523
-957.240112 -26.320496 148.430527
-960.944092 -257.680695 141.847519
-959.034119 -110.260498 143.449524
-958.995117 -56.860489 140.230530
-963.094116 -332.710693 133.966614
-961.364136 -252.670700 139.023621
-961.598145 -240.590866 136.820618
-960.645142 -99.760498 131.667526
-959.831116 -86.270493 136.720520
-960.663147 -87.190491 130.214523
-960.504089 -120.770493 134.961624
-964.496094 -293.310791 118.328621
-961.193115 -87.970490 125.754524
-962.564087 -169.430695 122.064522
-964.330139 -238.170700 111.464523
-966.006104 -299.470795 100.779526
-963.649109 -185.540802 111.331619
-962.831116 -169.610596 118.816528
-962.566101 -84.310501 104.100525
-962.718140 -87.820496 102.486526
-963.784119 -160.410706 102.968521
-963.364136 -132.090485 102.853523
-962.082092 -54.500488 104.658524
-964.302124 -189.830902 101.777519
-961.979126 -34.900497 101.516525
-963.388123 -161.860596 109.773621
-963.565125 -123.900497 95.884521
-964.313110 -182.790802 86.438522
-964.353088 -179.460693 92.267525
-965.623108 -274.010803 81.459526
-965.573120 -255.710693 96.173523
-965.347107 -249.500793 87.714523
-964.152100 -163.070892 95.375626
-965.201111 -231.020798 96.400520
-964.965088 -239.590866 72.474625
-965.061096 -243.410690 75.148621
-964.718140 -220.310791 75.535522
-964.971130 -240.150681 72.306526
-965.307129 -261.200684 73.589523
-962.605103 -71.470490 84.668526
-962.605103 -85.210495 70.109619
-962.272095 -54.210495 79.549622
-963.845093 -242.590866 55.868019
-963.538147 -171.890686 64.053024
-963.474121 -301.110596 42.409019
-962.541138 -141.470795 58.334023
-964.338135 -278.500793 55.309021
-963.749146 -184.970795 64.179024
-962.867126 -172.140686 56.847023
-964.380127 -281.550781 55.258026
-960.526123 -104.380493 39.336021
-961.869141 -107.630493 55.991020
-961.922119 -107.800491 56.646019
-962.229126 -122.400497 58.026024
-962.029114 -220.840897 38.217026
-960.560120 -51.640488 49.016022
-961.817139 -95.590500 57.441025
-960.734131 -51.620499 51.246025
-960.104126 -223.280792 25.448029
-961.720093 -204.560791 37.597015
-962.377136 -287.820892 34.422028
-960.329102 -127.940498 35.415024
-960.828125 -321.570892 21.374023
-960.949097 -317.710693 22.500015
-961.730103 -220.160690 36.266022
-960.340088 -242.850632 25.234024
-958.954102 -268.440704 13.841019
-958.112122 -210.790802 12.438019
-959.007141 -156.240784 24.089020
-958.315125 -180.460693 16.655029
-957.836121 -215.840897 9.881027
-959.069092 -84.620499 30.840027
-958.234131 -139.230804 19.646027
-957.223145 -80.030502 17.075027
-957.081116 -215.670700 5.522018
-955.012146 -176.210693 -2.871979
-954.265137 -162.090897 -5.911972
-956.498108 -224.340897 1.970016
-954.879089 -76.050491 2.438019
-956.097107 -212.790802 0.581024
-953.805115 -191.420700 -10.063980
-954.476135 -124.530495 -2.563980
-951.094116 -52.390488 -18.247971
-952.214111 -74.210495 -12.642975
-951.122131 -26.760498 -16.969971
-952.520142 -37.830490 -9.279984
-950.624146 -119.790497 -23.157974
-951.283142 -160.380692 -21.601974
-945.196106 -171.080902 -48.647980
-941.459106 -156.900696 -64.568970
-945.478088 -114.300491 -45.540970
-950.617126 -127.260498 -23.430984
-949.336121 -126.410492 -29.023972
-943.507141 -132.330505 -54.778976
-940.870117 -86.960495 -66.803970
-942.157104 -103.770493 -60.604980
-939.961121 -105.770493 -71.152985
-940.345093 -63.530502 -69.349976
-943.273132 -35.660492 -55.308975
-943.470093 -27.870499 -54.369980
-938.750122 -40.660492 -77.034973
-944.434143 -92.720490 -49.677979
-936.923096 -96.270493 -85.083984
-932.507141 -92.920502 -103.835968
-927.397095 -169.480804 -125.485992
-924.971130 -174.490799 -135.785980
-933.240112 -88.700500 -100.725983
-937.472107 -145.820892 -82.717972
-937.208130 -88.870499 -83.874985
-936.173096 -89.500488 -88.270981
-934.738098 -32.540497 -95.515991
-931.633118 -47.770493 -109.369965
-933.112122 -77.990494 -101.393982
-928.918091 -125.060493 -119.134979
-933.876099 -46.860489 -98.989990
-932.377136 -54.770493 -105.658966
-934.261108 -46.910492 -97.200989
-924.984131 -143.110596 -136.729980
-921.895142 -130.070496 -152.116974
-923.671143 -83.900497 -145.274963
-920.255127 -134.700500 -159.900970
-919.950134 -163.790802 -160.262970
-921.123108 -35.800491 -161.130981
-919.478088 -84.370499 -166.957977
-924.255127 -27.210495 -145.102966
-920.448120 -118.080498 -159.854980
-917.997131 -168.200684 -170.009979
-917.018127 -121.570496 -178.939972
-915.168091 -179.060791 -186.122986
-919.434143 -45.660492 -169.614990
-914.896118 -92.890488 -194.277985
-915.406128 -114.650497 -189.225983
-915.159119 -96.090500 -192.343964
-915.030090 -94.810501 -193.270966
-911.830139 -103.370499 -217.399963
-913.437134 -105.750488 -203.855988
-912.031128 -125.190498 -213.350983
-912.645142 -45.080490 -216.966980
-945.157104 -938.600525 -124.765991
-953.553101 -944.870483 -48.386978
-949.944092 -945.790527 -54.316971
-933.905090 -939.580505 -161.200989
-927.330139 -932.090515 -248.912964
-945.182129 -928.640503 -148.458984
-974.946106 -943.650513 125.316528
-971.848145 -945.100525 147.611526
-969.101135 -939.030518 23.780029
-945.027100 -932.000488 -147.023987
-969.537109 -950.620483 92.337524
-953.085144 -934.030518 -90.454987
-956.592102 -936.470520 -64.414978
-930.343140 -930.290527 -245.000977
-917.252136 -951.660522 235.595520
-916.722107 -950.720520 241.454529
-911.679138 -951.200500 243.942520
-935.260132 -943.920532 229.266525
-891.335144 -942.350525 275.353027
-902.394104 -947.940491 260.871521
-915.791138 -692.340515 -250.758972
-919.306091 -882.100525 -264.882965
-912.620117 -736.490479 -260.176971
-912.029114 -783.000488 -262.561981
-907.156128 -658.100525 -259.215973
-928.701111 -930.000488 -263.673981
-907.078125 -590.360474 -256.202972
-923.800110 -908.690491 -264.865967
-898.170105 -415.410492 -254.032990
-906.748108 -347.180481 -245.102966
-909.310120 -540.870483 -249.757965
-910.748108 -588.230469 -250.752991
-924.020142 -816.770508 -253.707977
-904.279114 -359.090485 -248.965973
-901.617126 -511.830505 -256.248962
-898.924133 -495.550476 -256.426971
-903.550110 -378.490479 -250.307983
-904.012146 -412.110474 -251.180969
-919.207092 -777.050537 -257.481964
-908.254089 -525.120483 -250.871979
-910.203125 -637.500488 -255.967987
-908.773132 283.469482 283.220032
-952.507141 277.319519 170.084564
-909.530090 274.489502 303.556030
-878.729126 242.679520 370.811035
-913.909119 282.349487 283.015015
-866.516113 228.179520 390.331024
-905.033142 103.859512 -215.060974
-897.294128 -248.530792 -247.726990
-899.000122 -171.930695 -243.688965
-900.838135 -54.550491 -236.195984
-908.087097 -11.730499 -230.458984
-943.254089 236.899490 -34.107971
-949.180115 256.899475 27.314026
-905.362122 -2.580490 -231.454987
-904.305115 -21.400497 -233.155975
-903.626099 -172.120697 -242.117981
-938.847107 241.469498 -27.074982
-905.261108 74.689499 -223.145966
-949.738098 231.809494 -21.951981
-910.103088 -90.640488 -230.837982
-907.454102 -312.060791 -241.988983
-907.267090 -371.950500 -244.545990
-910.518127 -86.030502 -229.381989
-954.164124 250.079514 22.485016
-946.006104 231.269516 -38.381973
-906.588135 -306.060791 -243.989990
-906.228088 -358.140503 -246.434967
-913.325134 97.519516 -213.166992
-904.878113 -377.570496 -249.012970
-948.898132 238.399490 -18.272980
-942.704102 224.509506 -57.136978
-910.393127 -53.810501 -229.464966
-951.990112 252.029495 19.032028
-915.670105 129.179520 -198.850983
-717.698120 1527.969604 -22.456970
-718.437134 1526.639526 -20.244980
-715.583130 1505.079590 33.772018
-713.165100 1264.239502 191.624527
-711.450134 1292.839600 188.689514
-710.008118 1110.029541 166.540558
-709.236145 1091.009521 157.503571
-708.864136 1179.509521 189.219620
-705.099121 928.399475 -93.297974
-706.113098 959.799500 22.816025
-709.891113 936.529480 -74.669983
-719.659119 1464.109497 81.567520
-716.952087 1319.489502 176.015533
-720.542114 1517.629517 -6.805984
-710.228088 1029.249512 111.622620
-720.474121 1529.209595 -40.269974
-713.349121 1520.339600 2.103027
-710.792114 1399.119507 -373.929962
-713.338135 1543.009521 -116.966980
-707.786133 1478.469604 -299.645966
-708.936096 1488.049561 -287.683990
-705.327087 1267.799561 -419.064972
-698.519104 930.579529 -150.377991
-699.807129 999.729431 -310.298981
-699.933105 1023.679504 -335.518982
-700.893127 1073.529541 -374.134003
-702.397095 1007.739441 -320.786987
-703.051086 1016.059509 -329.515991
-699.567139 938.189514 -192.434967
-704.632141 1234.919556 -420.819000
-698.828125 1097.499512 -382.419952
-696.019104 939.399475 -178.914978
-703.693115 1351.619507 -393.636993
-703.990112 1367.129517 -386.715973
-696.039124 942.669495 -191.392975
-698.590088 1062.449585 -363.655975
-699.257141 1059.599609 -363.272980
-702.676086 1285.859497 -413.255951
-707.354126 1538.869507 -129.327972
-704.125122 1246.129517 -420.149994
-707.324097 1468.099609 -312.069977
-698.727112 946.099548 -10.798981
-701.064087 1096.739502 160.011566
-704.438110 1170.589600 187.257523
-700.161133 1013.079529 98.310623
-707.056091 1423.889526 128.113525
-710.195129 1541.489502 -89.523987
-706.981140 1406.279541 141.126526
-712.257141 1518.509521 6.491028
-698.237122 1065.109497 136.308517
-706.690125 1515.199585 3.014023
-707.234131 1525.969604 -23.662979
-697.814087 1017.699524 99.057625
-697.836121 1005.449524 86.505623
-707.181091 1536.329590 -73.917984
-707.810120 1510.099609 20.307022
-701.632141 1158.959595 182.864517
-700.188110 1081.949585 151.388626
-706.851135 1532.009521 -138.331970
-706.748108 1526.439575 -153.471985
-706.139099 1493.499512 -258.289978
-706.077087 1490.159546 -273.829987
-705.815125 1475.989502 -288.824982
-704.233093 1390.449585 -364.393951
-701.185120 1225.639526 -407.889984
-697.769104 1040.939575 -342.657990
-697.429138 1022.549500 -323.010986
-696.663147 981.149475 -276.073975
-696.635132 979.629456 -268.203979
-696.244141 958.499451 -213.700989
-696.029114 946.879456 -182.145966
-695.929138 941.489441 -149.494965
-696.076111 949.409485 -35.546982
-696.944092 996.349548 59.152023
-697.585144 1031.029541 106.934525
-697.883118 1047.109497 117.962524
-698.282104 1068.709595 138.115524
-699.443115 1131.469604 162.571564
-700.337097 1179.829590 175.625580
-701.765137 1257.039551 184.078629
-702.546143 1299.249512 173.439545
-704.058105 1381.009521 145.067520
-705.607117 1464.729492 80.195625
-705.676086 1468.489502 69.335526
-706.336121 1504.179565 7.496017
-706.424133 1508.919556 2.077026
-706.881104 1533.619507 -87.292984
-706.943115 1536.959595 -106.170990
-698.041138 1002.969543 -292.408966
-702.423096 954.699524 -179.759979
-704.519104 1098.109497 -367.796967
-705.689087 1149.219604 -389.014008
-702.043091 1007.399475 -292.698975
-699.223145 948.799500 -168.013977
-705.912109 1214.819580 -402.657990
-700.217102 1149.309570 -394.285004
-711.976135 1522.689575 -146.838989
-712.845093 1521.489502 -147.140991
-712.761108 1518.749512 -166.020966
-710.510132 1415.469604 -339.121979
-708.035095 1493.939575 -250.397980
-709.275146 1500.669556 -234.720978
-706.905090 1523.629517 -169.582977
-710.081116 1500.459595 -233.383972
-715.225098 1480.159546 -252.054962
-706.124146 975.419495 -219.432983
-714.074097 1505.899536 -205.325989
-710.433105 1313.969604 -388.535004
-715.431091 1512.449585 -169.381989
-711.092102 1287.429565 -392.100983
-710.755127 1267.729492 -394.946991
-708.638123 1158.009521 -386.425995
-706.854126 1049.459595 -326.925964
-705.455139 994.109436 -263.556976
-714.033142 1512.929565 -182.389984
-713.183105 1490.849609 -243.708984
-708.105103 1218.179565 -399.962982
-711.325134 976.879456 -203.276978
-715.669128 1093.639526 -346.470001
-715.983093 1141.709595 -369.694000
-718.102112 1194.809570 -382.924957
-716.962097 1041.159546 -304.342987
-712.830139 1092.239502 -346.978973
-715.233093 1209.049561 -385.887970
-714.926086 1215.759521 -386.667999
-719.542114 1509.549561 -113.979980
-716.815125 1335.569580 -368.556976
-715.331116 1268.569580 -385.723969
-719.448120 1282.379517 -381.838959
-724.238098 1505.499512 -144.294983
-721.388123 1446.559570 -285.743988
-722.349121 1491.149536 -206.973969
-708.742126 1099.699585 -357.770966
-710.214111 1177.629517 -386.822968
-716.669128 1512.129517 -141.756989
-713.881104 1299.999512 -382.179962
-710.482117 1137.549561 -372.707001
-709.523132 1089.829590 -349.408966
-715.421143 1353.729492 -362.327972
-712.237122 1181.779541 -383.979950
-715.004089 1408.579590 -330.603973
-718.421143 1474.649536 -248.226990
-729.357117 986.119446 -223.677979
-725.560120 1010.219543 -266.715973
-719.614136 1013.689514 -271.926971
-720.242126 1060.369507 -322.107971
-732.425110 1094.919556 -347.010956
-728.991089 1133.019531 -365.746002
-726.771118 1134.569580 -366.439972
-725.698120 1151.169556 -372.207977
-721.933105 1188.959595 -381.648956
-734.686096 1240.749512 -385.462006
-733.230103 1263.119507 -384.087982
-727.403137 1312.559570 -374.228973
-735.820129 1333.519531 -367.093964
-736.189087 1383.109497 -341.612976
-737.493103 1413.489502 -318.390991
-735.290100 1458.879517 -267.767975
-726.550110 1454.149536 -274.458984
-727.792114 1447.799561 -282.927979
-729.440125 1475.369507 -240.736969
-727.430115 1479.189575 -233.247986
-729.627136 1482.689575 -225.476990
-737.640137 1500.739502 -169.976990
-735.522095 1503.569580 -155.627991
-738.111145 1505.379517 -140.689972
-727.455139 1506.649536 -124.004974
-745.231140 1411.659546 -318.688965
-740.564087 999.119446 -244.858978
-741.773132 990.459534 -225.902985
-739.895142 989.889465 -227.463989
-735.867126 1086.249512 -341.446991
-742.185120 1109.129517 -352.477997
-741.727112 1080.069580 -334.689972
-744.135132 1203.109497 -381.400970
-739.733093 1176.179565 -378.606964
-750.110107 1374.529541 -341.543976
-746.893127 1394.519531 -331.285980
-744.702087 1245.169556 -383.192963
-750.623108 1503.649536 -114.550964
-750.312134 1483.619507 -215.226990
-737.752136 1272.369507 -382.957001
-741.866089 1349.099609 -359.952972
-742.991089 1472.089600 -245.968964
-741.113098 1490.579590 -206.150970
-750.375122 1091.209595 -325.222992
-757.263123 1488.899536 -161.846985
-755.871094 1403.409546 -308.730988
-753.192139 1262.309570 -370.551971
-752.736145 1225.159546 -370.492950
-751.576111 1160.479492 -359.509979
-749.125122 1026.569580 -264.208984
-755.979126 1477.469604 -211.734985
-746.581116 972.609436 -129.286987
-756.750122 1495.389526 -121.585968
-737.893127 1224.239502 -385.359955
-752.047119 1180.469604 -361.417999
-750.045105 1072.239502 83.399521
-753.662109 1267.839600 138.542526
-757.745117 1488.599609 -105.521973
-753.454102 1077.199585 -301.794983
-757.034119 994.389465 -151.106964
-755.998108 1005.829529 -196.526978
-759.916138 1169.759521 -347.673004
-758.723145 1217.429565 -356.444977
-755.682129 1184.459595 -353.402985
-755.058105 1058.189575 -282.167969
-762.564087 1472.299561 -166.892975
-763.594116 1394.809570 -295.850983
-764.030090 1470.959595 -169.706970
-756.215088 1404.599609 -299.361969
-748.460144 986.459534 -161.969971
-755.916138 1378.339600 -318.672974
-755.521118 1361.829590 -329.988983
-754.284119 1293.319580 -357.486969
-758.649109 1480.169556 -147.930969
-752.896118 1130.099609 -337.432983
-755.865112 1254.199585 -358.850006
-893.687134 1102.099609 -318.691986
-884.101135 999.649475 -183.608978
-801.305115 998.429504 -172.777985
-787.211121 1000.479431 -180.623962
-788.246094 1000.269470 -179.798981
-873.238098 989.539490 -116.746979
-817.684143 990.569519 -116.899963
-782.581116 991.279480 -118.639984
-842.519104 990.349548 -122.290985
-795.433105 991.539490 -129.563965
-850.586121 990.749451 -133.647980
-860.657104 991.419495 -141.419983
-784.858093 992.909485 -141.827972
-866.492126 992.099548 -146.818970
-830.354126 993.159485 -149.465973
-777.366089 994.059509 -149.055969
-890.576111 993.779480 -160.923981
-868.663147 994.329529 -161.746979
-811.816101 995.559509 -162.128967
-846.781128 997.519470 -172.459991
-851.276123 997.109436 -171.199982
-768.560120 1003.559509 -188.648987
-823.957092 1009.479431 -207.819977
-797.139099 1007.549500 -201.727966
-761.379089 1002.499451 -185.224976
-894.544128 1003.819519 -196.150970
-867.233093 1001.509460 -188.406982
-876.500122 1005.499451 -199.722992
-793.853088 1013.659485 -215.270966
-821.198120 1014.649475 -218.375977
-880.035095 1013.239441 -217.960968
-893.229126 1008.959534 -209.742981
-797.751099 1015.159485 -218.712982
-832.423096 1021.069519 -231.730988
-839.067139 1022.049500 -233.551971
-881.738098 1028.069580 -244.711975
-852.077087 1027.249512 -242.475983
-789.315125 1026.879517 -240.093964
-799.694092 1027.409546 -241.286987
-788.634094 1032.649536 -249.259979
-824.534119 1033.739502 -251.805969
-811.243103 1037.229492 -256.136963
-795.777100 1039.239502 -258.557983
-825.553101 1038.139526 -257.773987
-859.904114 1041.729492 -263.420990
-872.438110 1044.969604 -267.898987
-811.940125 1046.299561 -268.152985
-896.201111 1050.469604 -274.922974
-774.120117 1052.849609 -274.731964
-846.243103 1053.979492 -277.734985
-871.356140 1054.759521 -279.130981
-831.676086 1064.669556 -288.303986
-866.830139 1067.529541 -291.590973
-791.244141 1071.809570 -294.127991
-883.974121 1091.549561 -311.450989
-825.285095 1095.749512 -313.617981
-798.690125 1079.279541 -300.784973
-840.563110 1081.609497 -303.234985
-848.551086 1086.839600 -307.421967
-870.278137 1088.339600 -308.926971
-802.863098 1092.389526 -310.943970
-839.780090 1119.769531 -328.157990
-883.495117 1129.419556 -333.452972
-798.702087 1110.369507 -322.480988
-840.488098 1105.529541 -320.088989
-832.371094 1129.719604 -333.036987
-840.459106 1136.079590 -336.072968
-841.584106 1135.169556 -335.715973
-842.998108 1141.759521 -338.273987
-767.864136 1145.179565 -339.101990
-873.153137 1149.789551 -341.667969
-824.403137 1152.019531 -342.122986
-795.794128 1155.339600 -343.097992
-839.312134 1155.369507 -343.486969
-887.028137 1159.459595 -344.968964
-828.271118 1166.619507 -346.726959
-857.475098 1170.109497 -347.876984
-825.083130 1169.729492 -347.606964
-834.760132 1172.369507 -348.406952
-766.317139 1184.279541 -350.993988
-866.448120 1183.249512 -351.056000
-859.905090 1188.649536 -352.010956
-875.886108 1194.559570 -353.153961
-825.710144 1195.589600 -353.155975
-770.267090 1200.919556 -353.684967
-862.527100 1202.489502 -354.186005
-769.072144 1202.109497 -353.835968
-772.472107 1211.889526 -355.121979
-895.341125 1209.989502 -354.989960
-858.880127 1217.339600 -355.617950
-848.689087 1218.809570 -355.668976
-884.777100 1223.599609 -355.985992
-824.550110 1230.579590 -355.992950
-862.508118 1237.479492 -356.003998
-851.911133 1232.729492 -356.058990
-820.280090 1239.209595 -356.054962
-834.899109 1247.689575 -355.712982
-776.370117 1254.589600 -355.332977
-881.672119 1262.819580 -354.037994
-813.451111 1258.049561 -354.764008
-823.813110 1266.219604 -353.778961
-803.116089 1271.089600 -353.126007
-874.814087 1273.819580 -352.505951
-770.495117 1281.309570 -351.434967
-786.345093 1284.259521 -350.679962
-893.970093 1285.799561 -349.864960
-896.778137 1291.779541 -348.595001
-857.091125 1295.249512 -347.944977
-776.593140 1291.079590 -349.155975
-773.122131 1300.239502 -347.022003
-857.477112 1302.409546 -345.709991
-870.926086 1303.989502 -345.091949
-819.885132 1305.349609 -344.984985
-780.277100 1310.349609 -343.587982
-864.668091 1313.409546 -342.090973
-775.661133 1319.949585 -340.387970
-788.756104 1313.839600 -342.379974
-896.113098 1318.439575 -340.184967
-820.106140 1324.629517 -338.240967
-813.081116 1327.369507 -337.068970
-836.583130 1330.389526 -335.616974
-842.763123 1367.129517 -315.488983
-836.234131 1366.799561 -315.792969
-804.800110 1359.659546 -320.652985
-868.872131 1359.229492 -320.300964
-881.164124 1358.759521 -320.461975
-901.054138 1351.339600 -324.553986
-787.890137 1347.809570 -327.599976
-864.136108 1342.969604 -329.500977
-766.964111 1340.799561 -331.375977
-836.151123 1332.249512 -334.800964
-889.424133 1386.809570 -300.200989
-898.529114 1382.019531 -303.919983
-845.313110 1380.449585 -305.642975
-835.419128 1371.779541 -312.345978
-809.604126 1382.349609 -304.816986
-827.306091 1392.139526 -296.597992
-902.055115 1399.599609 -288.706970
-798.566101 1401.169556 -289.004974
-834.549133 1403.399536 -286.116974
-862.669128 1409.089600 -279.728973
-861.315125 1411.029541 -277.720978
-882.251099 1414.489502 -273.222992
-784.232117 1416.579590 -272.995972
-881.254089 1420.679565 -265.889984
-877.955139 1422.259521 -263.981964
-815.635132 1424.759521 -262.313965
-831.509094 1427.649536 -258.233978
-806.154114 1430.419556 -254.876984
-855.254089 1433.229492 -249.528992
-781.206116 1434.309570 -250.312988
