ply
format ascii 1.0
element vertex 1377
property float x
property float y
property float z
end_header
637.543457 -805.119690 -407.667755
615.113464 -810.839722 -417.632751
557.323486 -845.989685 -391.840729
575.493469 -829.739685 -392.845734
577.163513 -828.439697 -398.502747
784.923462 -829.089722 -399.766754
777.953491 -824.689697 -404.010742
775.473511 -823.079712 -399.993744
759.143494 -814.889709 -393.060730
749.313477 -811.309692 -394.099731
715.903503 -803.379700 -393.920746
677.873474 -801.159668 -404.712738
637.243469 -805.079712 -401.847748
628.373474 -806.929688 -405.318756
608.263489 -812.849670 -404.072754
607.303467 -813.179688 -406.434753
810.263489 -862.459717 -414.295746
806.623474 -853.229675 -410.763733
803.563477 -848.299683 -415.531738
787.873474 -832.309692 -420.573730
779.503479 -825.979675 -410.150726
764.473511 -818.319702 -413.911743
717.043457 -804.469727 -410.526733
702.023499 -803.259705 -420.904755
682.253479 -801.559692 -410.382751
681.093506 -801.999695 -418.272736
672.873474 -801.589722 -409.691742
656.113464 -803.219727 -422.160736
602.583496 -815.329712 -383.867737
588.183472 -822.439697 -378.936737
584.443481 -824.199707 -387.869751
570.573486 -833.689697 -389.111755
564.713501 -838.709717 -388.824738
559.043457 -844.819702 -378.905731
557.443481 -849.479675 -350.532745
554.573486 -852.969727 -349.495728
809.883484 -862.349670 -328.824738
808.273499 -858.999695 -328.318756
805.583496 -853.539673 -334.872742
791.333496 -837.229675 -326.258728
787.003479 -833.469727 -324.427734
773.903503 -824.069702 -326.481750
741.893494 -809.769714 -330.355743
738.753479 -808.729675 -333.214752
717.543457 -804.599670 -326.525726
718.003479 -804.169678 -334.019745
686.283508 -802.399719 -322.884735
629.783508 -809.479675 -328.482727
599.353516 -820.649719 -330.806732
583.463501 -829.729675 -329.983734
578.433472 -832.629700 -333.393738
576.343506 -835.339722 -325.040741
564.813477 -844.579712 -329.669739
558.923462 -849.949707 -334.344727
551.913513 -859.799683 -328.085754
546.803467 -865.009705 -344.837738
546.033508 -861.089722 -403.070740
544.823486 -863.039673 -409.194733
543.993469 -864.509705 -411.140747
810.083496 -860.929688 -382.410736
805.313477 -850.549683 -392.109741
788.093506 -831.409668 -389.202728
783.223511 -827.689697 -390.020752
768.413513 -818.839722 -380.799744
751.083496 -811.769714 -388.736755
726.413513 -805.089722 -390.744751
720.323486 -803.719727 -381.111755
717.023499 -803.439697 -390.612732
709.453491 -802.109680 -380.356750
663.133484 -801.279724 -384.585754
616.173462 -810.319702 -381.682739
604.143494 -814.419678 -401.843750
577.013489 -828.339722 -434.838745
566.163513 -1380.754639 -21.417732
760.543457 -1325.124756 3.790268
533.923462 -953.739685 -146.739746
533.033508 -977.009705 -114.192726
537.803467 -940.839722 -148.199738
537.373474 -955.639709 -125.458733
534.793457 -956.029724 -135.900726
537.323486 -964.189697 -113.333733
536.663513 -989.919678 -83.919731
540.983459 -933.399719 -150.443726
539.193481 -934.759705 -154.331726
540.833496 -941.419678 -137.058746
541.023499 -950.479675 -122.450737
538.383484 -990.179688 -80.143730
541.323486 -999.409668 -66.357735
538.763489 -1030.254639 -45.489738
540.713501 -1057.254639 -26.978737
543.803467 -922.269714 -161.845734
542.243469 -999.739685 -64.976738
544.733459 -1055.304688 -24.831734
553.063477 -918.599670 -147.264740
547.893494 -918.339722 -158.256744
549.173462 -927.979675 -139.131744
549.133484 -937.589722 -124.763741
550.943481 -948.229675 -107.848732
551.903503 -955.189697 -98.118736
546.683472 -1019.329712 -44.914726
550.613464 -1025.564697 -37.939735
546.823486 -1060.744751 -20.562737
566.653503 -909.799683 -141.923737
566.193481 -924.979675 -120.404732
565.543457 -943.519714 -98.125740
567.903503 -955.059692 -83.626732
564.523499 -987.819702 -56.251732
582.873474 -886.529724 -163.529724
580.743469 -925.509705 -108.331734
609.933472 -874.869690 -163.443726
592.013489 -843.669678 -251.520752
586.343506 -849.669678 -242.092743
582.963501 -849.369690 -249.656738
579.533508 -849.349670 -256.543732
569.103516 -854.859680 -263.097748
574.863464 -858.539673 -237.319733
563.043457 -865.409668 -246.146729
557.053467 -873.139709 -240.376740
552.983459 -876.119690 -245.994751
547.993469 -880.679688 -253.318756
546.873474 -880.259705 -261.554749
540.243469 -899.559692 -236.342743
536.513489 -908.719727 -240.563751
534.813477 -915.849670 -238.937744
613.433472 -831.119690 -261.182739
600.433472 -849.209717 -224.631744
577.733459 -856.879700 -236.339752
581.983459 -861.359680 -217.707733
574.133484 -862.179688 -229.059753
572.613464 -868.709717 -214.509735
561.453491 -877.119690 -216.065735
556.603516 -876.979675 -230.291748
555.093506 -879.649719 -227.257751
548.913513 -885.439697 -232.789734
551.833496 -887.259705 -216.706726
543.513489 -894.389709 -231.608734
539.263489 -908.869690 -213.713745
535.733459 -918.499695 -214.915741
534.873474 -918.569702 -227.113739
533.913513 -927.839722 -211.289734
633.943481 -865.399719 -168.730743
636.563477 -864.349670 -169.486725
626.903503 -861.279724 -179.626740
627.523499 -855.719727 -189.649750
629.033508 -845.659668 -209.851746
629.323486 -844.059692 -213.107727
637.583496 -838.679688 -221.613739
644.713501 -809.699707 -308.749756
636.363464 -814.179688 -297.128754
625.783508 -824.439697 -269.861755
620.173462 -827.949707 -263.882751
612.923462 -838.199707 -240.510742
607.883484 -841.769714 -235.795746
604.333496 -843.999695 -233.663727
593.433472 -860.819702 -204.377747
584.403503 -872.089722 -189.709747
574.583496 -877.269714 -191.546753
564.033508 -881.519714 -200.085754
554.303467 -886.519714 -210.156738
551.923462 -893.429688 -200.603729
538.643494 -913.699707 -203.891754
538.113464 -918.829712 -193.645752
535.963501 -927.059692 -188.706726
534.523499 -928.249695 -200.606750
533.213501 -937.469727 -192.563751
610.243469 -825.679688 -284.558746
610.503479 -827.059692 -279.184753
596.243469 -834.449707 -274.637756
595.603516 -836.679688 -267.512756
588.303467 -836.049683 -284.905731
582.333496 -837.599670 -293.032745
570.033508 -847.509705 -289.444733
569.623474 -853.559692 -266.420746
568.173462 -853.489685 -271.482727
556.893494 -866.179688 -264.807739
551.023499 -869.459717 -282.567749
547.623474 -876.529724 -272.289734
540.093506 -890.959717 -273.619751
538.123474 -896.579712 -271.193756
536.953491 -899.199707 -278.400726
535.363464 -903.889709 -287.205750
618.093506 -814.219727 -320.454742
613.273499 -817.669678 -313.205750
609.723511 -819.329712 -312.099731
597.623474 -828.519714 -294.597748
590.093506 -827.729675 -317.538727
591.373474 -829.849670 -304.174744
577.913513 -834.809692 -321.240753
581.233459 -836.939697 -299.922729
574.693481 -837.269714 -321.490753
568.733459 -846.369690 -299.493744
567.823486 -848.399719 -293.441742
558.613464 -854.689697 -309.284729
553.313477 -861.739685 -305.258728
549.263489 -869.589722 -292.752747
542.233459 -878.929688 -314.072754
540.183472 -885.519714 -302.906738
534.243469 -908.189697 -307.662750
775.563477 -1007.579712 -36.873734
776.223511 -984.109680 -52.538734
779.883484 -965.239685 -68.739738
775.493469 -945.509705 -83.970726
776.653503 -942.859680 -87.008736
785.333496 -927.599670 -108.487740
788.913513 -942.699707 -94.844734
786.383484 -968.159668 -69.899727
787.153503 -983.409668 -58.271736
784.393494 -998.679688 -46.181740
730.203491 -811.809692 -301.921753
714.663513 -817.199707 -271.980743
710.033508 -808.769714 -300.835754
705.463501 -804.769714 -316.624756
706.663513 -806.739685 -308.351746
698.923462 -807.269714 -304.362732
676.143494 -803.139709 -321.555756
677.503479 -807.499695 -302.601746
662.013489 -809.279724 -298.812744
654.093506 -816.279724 -277.240753
645.013489 -816.829712 -280.689728
650.053467 -819.939697 -266.450745
630.343506 -833.019714 -240.141754
619.033508 -852.719727 -200.596741
611.693481 -858.009705 -194.336731
577.273499 -917.879700 -120.248741
755.893494 -943.279724 -78.026741
761.883484 -927.299683 -95.964729
755.063477 -927.499695 -93.147728
759.733459 -917.089722 -106.304741
753.573486 -885.419678 -144.277740
766.643494 -871.389709 -174.980743
763.703491 -879.219727 -159.203735
771.513489 -899.009705 -134.885742
765.643494 -927.249695 -97.622734
773.153503 -907.419678 -124.636726
773.303467 -872.729675 -177.908752
779.573486 -860.729675 -209.485748
785.583496 -855.959717 -230.999756
785.443481 -859.999695 -220.416748
784.953491 -862.329712 -213.890747
781.563477 -898.499695 -142.691742
776.733459 -827.789673 -314.142731
770.893494 -827.589722 -296.995728
738.653503 -834.979675 -233.461731
737.973511 -842.489685 -214.708740
790.973511 -838.239685 -316.727753
782.033508 -836.099670 -290.672729
771.643494 -835.029724 -269.447754
770.973511 -839.049683 -255.052734
766.663513 -840.519714 -244.500732
758.893494 -841.509705 -232.932739
732.033508 -865.529724 -166.837738
755.583496 -822.829712 -288.374756
749.803467 -823.399719 -278.179749
749.983459 -825.849670 -269.483734
740.863464 -830.659668 -246.069733
784.613464 -842.249695 -272.567749
778.043457 -842.829712 -255.693756
772.033508 -845.929688 -236.528748
757.243469 -850.499695 -209.643738
748.103516 -857.489685 -188.790741
750.443481 -863.999695 -177.364746
739.413513 -872.349670 -158.236725
785.053467 -832.289673 -321.413727
774.273499 -829.739685 -296.433746
758.833496 -834.469727 -252.561737
754.963501 -836.089722 -243.445740
750.513489 -842.419678 -222.623749
749.643494 -813.659668 -318.854736
741.153503 -811.189697 -317.251740
721.743469 -818.409668 -271.215729
727.773499 -822.349670 -262.466736
718.823486 -824.129700 -252.396729
714.673462 -830.899719 -232.703735
679.043457 -820.169678 -258.281738
663.363464 -826.919678 -241.090729
676.243469 -831.839722 -227.108734
666.383484 -829.139709 -235.136749
667.833496 -835.929688 -218.071747
682.623474 -842.949707 -201.163727
665.863464 -843.889709 -200.987732
674.743469 -848.369690 -190.710754
667.733459 -852.409668 -183.822754
684.203491 -863.409668 -162.993744
671.583496 -869.689697 -153.715729
683.043457 -885.319702 -130.086731
666.393494 -883.009705 -134.347748
674.273499 -890.739685 -123.385735
663.163513 -890.669678 -123.956734
672.263489 -906.939697 -103.712730
670.463501 -911.869690 -98.343727
673.343506 -928.489685 -81.008736
668.923462 -930.779724 -78.926735
666.283508 -939.129700 -70.969734
674.463501 -948.039673 -63.190727
681.083496 -970.239685 -45.555733
667.063477 -963.319702 -50.964729
680.833496 -981.559692 -37.659737
677.113464 -989.989685 -32.136734
682.773499 -1003.389709 -23.968735
667.923462 -1016.799683 -16.446732
675.983459 -1019.439697 -15.065735
669.003479 -1036.644653 -6.649734
681.863464 -1055.384644 1.421265
670.443481 -1047.504639 -1.931732
674.053467 -1067.274658 5.872269
683.723511 -1063.854736 4.673264
680.083496 -1078.914673 9.993263
681.773499 -1085.594727 12.106270
668.003479 -1095.004639 14.775269
677.743469 -1113.624756 19.645264
666.153503 -1114.364746 19.769264
682.383484 -1137.894653 24.586266
678.743469 -1151.204712 26.796265
674.003479 -1162.864746 28.092266
682.633484 -1155.794678 27.345268
663.153503 -1173.414673 29.110268
669.693481 -1184.194702 29.910267
666.883484 -1196.734741 30.525265
678.503479 -1201.574707 30.788265
674.373474 -1220.144653 30.767265
674.393494 -1225.604736 30.603268
657.403503 -1229.674683 30.147266
674.643494 -1255.154663 28.563267
662.923462 -1259.094727 27.943268
676.283508 -1278.194702 25.668266
677.283508 -1292.474731 23.394268
668.433472 -1301.914673 21.200268
656.083496 -1306.084717 20.010269
673.493469 -1322.204712 16.558266
677.193481 -1319.914673 17.258263
664.123474 -1333.314697 13.302269
671.133484 -1339.724731 11.659264
657.403503 -1345.304688 9.488266
673.743469 -1363.114746 3.830269
653.923462 -1376.524658 -1.948730
669.643494 -1393.054688 -8.682732
665.523499 -1397.314697 -10.733734
756.953491 -816.579712 -318.598755
742.653503 -822.339722 -273.737732
735.643494 -821.429688 -270.504730
730.863464 -830.769714 -239.577728
711.013489 -835.729675 -219.470734
719.273499 -841.159668 -210.186737
721.733459 -842.509705 -208.011749
715.593506 -846.239685 -198.012756
730.993469 -852.549683 -190.074738
724.653503 -855.609680 -182.435730
713.843506 -849.819702 -190.412750
720.053467 -862.529724 -168.802734
727.153503 -870.969727 -156.534729
718.193481 -873.929688 -149.832733
726.863464 -886.219727 -133.864746
713.343506 -883.289673 -135.290741
724.233459 -888.149719 -130.693726
728.313477 -900.939697 -115.121727
731.163513 -908.499695 -106.854729
728.453491 -918.599670 -95.009727
722.073486 -923.989685 -88.552727
725.343506 -932.739685 -80.406731
727.863464 -935.989685 -77.593727
729.453491 -937.399719 -76.573738
709.643494 -945.209717 -66.822731
721.263489 -958.009705 -57.741737
730.703491 -964.119690 -54.374733
710.013489 -971.139709 -46.193733
717.783508 -979.669678 -41.258736
714.403503 -978.959717 -41.302734
730.843506 -998.079712 -30.969734
710.703491 -1008.259705 -22.570732
720.673462 -1020.099670 -17.305733
710.173462 -1020.824707 -15.730736
720.893494 -1039.124634 -8.002731
715.323486 -1053.894653 -1.051735
723.893494 -1069.874756 4.066269
711.053467 -1064.864746 3.611267
717.093506 -1086.314697 10.290268
710.053467 -1089.784668 12.023270
726.463501 -1105.224731 14.776268
713.783508 -1108.874756 16.910263
720.243469 -1116.674683 18.093269
722.843506 -1134.324707 21.455265
712.153503 -1148.594727 24.938267
713.263489 -1155.804688 25.738266
723.733459 -1168.284668 26.202267
718.533508 -1183.284668 27.849266
708.533508 -1195.724731 29.493267
716.603516 -1200.704712 28.843266
712.543457 -1218.024658 29.280266
716.003479 -1224.274658 28.788265
712.133484 -1236.844727 28.501266
717.263489 -1250.924683 26.934265
707.813477 -1267.634644 26.033268
718.723511 -1270.654663 24.527267
703.933472 -1281.884644 24.112267
719.453491 -1309.354736 17.102264
708.093506 -1301.354736 19.982269
709.703491 -1315.654663 16.610268
702.893494 -1333.324707 12.417267
704.143494 -1338.504639 10.769264
718.083496 -1358.124756 2.574265
717.763489 -1368.984741 -1.743736
701.263489 -1381.364746 -4.751732
707.563477 -1382.334717 -6.000732
699.203491 -1396.744751 -11.678734
703.643494 -817.939697 -266.288727
687.193481 -823.409668 -247.946747
700.953491 -830.769714 -230.232727
692.503479 -832.249695 -225.594727
691.133484 -837.259705 -213.569733
694.723511 -846.039673 -195.053741
704.053467 -847.819702 -192.435730
700.313477 -858.649719 -171.844727
688.163513 -857.459717 -173.063751
706.893494 -863.589722 -164.267731
686.883484 -868.299683 -155.025726
703.133484 -882.509705 -135.102722
689.393494 -875.329712 -144.387726
690.993469 -883.859680 -132.353729
707.583496 -895.549683 -118.299736
707.203491 -892.109680 -122.627739
692.823486 -901.709717 -109.577736
694.983459 -903.509705 -107.641731
691.713501 -916.209717 -93.368736
694.663513 -925.089722 -84.511726
701.553467 -935.639709 -74.645729
702.733459 -943.469727 -67.885735
703.883484 -951.349670 -61.150734
694.843506 -959.519714 -54.075737
695.483459 -962.939697 -51.517738
706.303467 -990.269714 -32.950737
696.313477 -994.239685 -29.799736
707.923462 -994.779724 -30.148735
699.753479 -1006.809692 -22.701736
705.293457 -1026.544678 -12.532730
688.923462 -1031.114624 -9.426735
704.403503 -1052.864746 -0.545731
689.873474 -1054.464722 0.811264
706.123474 -1057.364746 1.272270
704.473511 -1074.054688 7.383263
695.653503 -1074.524658 7.959267
701.623474 -1090.084717 12.629265
702.433472 -1103.064697 16.380264
688.453491 -1096.084717 14.966263
691.673462 -1109.164673 18.317268
702.213501 -1126.304688 21.788265
701.923462 -1139.694702 24.137268
701.473511 -1128.554688 22.229267
689.343506 -1148.814697 26.187267
697.553467 -1160.674683 27.321266
698.603516 -1171.194702 28.471268
704.923462 -1191.394653 29.566265
695.523499 -1196.864746 30.230267
696.273499 -1209.964722 30.306267
690.523499 -1208.034668 30.514267
685.413513 -1222.464722 30.676266
700.243469 -1242.874756 29.110268
685.623474 -1245.964722 29.413265
699.573486 -1248.544678 28.642265
681.373474 -1251.864746 28.936268
686.833496 -1275.674683 25.849266
679.663513 -1275.824707 26.068268
694.353516 -1299.734741 21.286266
681.833496 -1310.054688 19.484268
683.193481 -1321.524658 16.606270
678.393494 -1329.344727 14.630264
684.233459 -1342.904663 10.416267
677.793457 -1357.194702 5.900269
686.773499 -1368.894653 1.106270
685.783508 -1376.374756 -1.808731
687.403503 -1389.644653 -7.633736
675.843506 -1388.094727 -6.364731
750.613464 -1384.614746 -16.631737
759.243469 -1388.534668 -22.119736
756.773499 -1345.524658 -1.921730
751.463501 -1348.774658 -1.351730
751.483459 -1342.794678 0.827263
745.933472 -1360.474731 -4.260735
752.653503 -1365.274658 -8.421730
757.943481 -1376.854736 -15.486732
766.073486 -1379.364746 -20.485733
767.833496 -1391.504639 -27.962730
748.193481 -1244.134644 23.072266
752.103516 -1251.864746 21.162266
755.423462 -1285.524658 15.222267
761.363464 -1309.114746 8.196266
746.873474 -1303.374756 13.562263
745.663513 -1313.754639 11.419266
780.333496 -1230.804688 14.451263
775.213501 -1244.404663 15.446266
777.543457 -1260.424683 12.337265
776.273499 -1295.624756 5.896263
772.703491 -1332.594727 -3.501732
792.383484 -1373.864746 -36.740730
796.203491 -1350.304688 -27.795731
796.843506 -1317.274658 -14.026733
795.183472 -1292.614746 -4.383736
795.623474 -1284.224731 -2.464737
787.093506 -1352.584717 -20.465736
788.533508 -1330.784668 -12.182732
789.163513 -1309.174683 -4.947731
791.123474 -1253.034668 6.719269
795.193481 -1258.104736 3.344269
797.513489 -1229.374756 5.613266
794.363464 -1215.904663 8.451263
800.563477 -1337.314697 -26.861732
803.373474 -1312.664673 -19.302734
801.953491 -1285.574707 -8.480736
775.083496 -1376.004639 -23.623734
772.293457 -1371.894653 -20.105736
767.493469 -1374.424683 -18.644737
767.453491 -1345.814697 -6.171730
761.733459 -1336.384644 -0.243736
768.123474 -1247.984741 17.419266
760.143494 -1218.754639 21.606266
752.833496 -1200.704712 23.430267
750.263489 -1194.344727 23.951267
765.243469 -1172.414673 19.082268
763.743469 -1146.094727 16.237267
768.293457 -1144.044678 14.772270
767.513489 -1124.234741 11.363266
760.363464 -1103.694702 8.308266
762.013489 -1089.354736 3.620270
753.313477 -1066.334717 -1.969734
760.273499 -1065.954712 -3.937737
758.083496 -1056.064697 -7.180733
769.663513 -1056.754639 -10.028732
756.093506 -1022.604675 -22.296730
765.523499 -1024.014648 -24.295731
762.913513 -1010.079712 -31.234734
770.043457 -999.989685 -39.464737
754.453491 -991.169678 -40.263733
765.273499 -982.329712 -49.819740
759.353516 -970.009705 -56.923729
766.783508 -970.369690 -59.220726
755.423462 -956.579712 -66.083733
778.553467 -1367.114746 -21.584732
783.523499 -1340.364746 -12.624733
780.873474 -1289.484741 5.411270
788.733459 -1263.814697 6.481270
805.443481 -1071.614746 -21.258736
799.513489 -869.119690 -226.878754
798.483459 -881.319702 -194.857727
802.103516 -892.019714 -180.018738
802.113464 -915.809692 -140.533722
799.123474 -922.259705 -127.559731
802.333496 -947.129700 -102.138741
803.213501 -972.479675 -78.581734
804.453491 -973.789673 -78.569740
804.403503 -993.489685 -62.936729
800.323486 -1029.054688 -37.269737
803.863464 -1030.004639 -39.235733
798.493469 -1105.324707 -5.674736
798.673462 -1143.344727 2.121269
797.983459 -1184.784668 6.449265
812.193481 -1105.024658 -16.419731
809.353516 -1097.234741 -15.767731
808.283508 -1125.244751 -7.864731
810.773499 -1172.574707 -4.259735
790.023499 -1012.739685 -40.316734
787.303467 -1014.239685 -38.059731
785.203491 -1030.574707 -28.242737
775.623474 -1024.814697 -27.178734
787.263489 -1042.554688 -22.987732
776.143494 -1059.584717 -11.046730
778.123474 -1063.454712 -10.298737
784.663513 -1083.824707 -5.370735
786.393494 -1088.964722 -4.467735
786.413513 -1106.284668 0.671265
786.143494 -1124.624756 5.025269
778.493469 -1125.644653 8.047264
772.503479 -1129.264648 10.961266
770.493469 -1132.364746 12.205269
772.753479 -1165.554688 16.080269
769.353516 -1173.944702 18.185265
769.913513 -1195.734741 19.047264
772.903503 -1202.034668 17.966263
773.613464 -1207.694702 17.638268
771.683472 -1230.744751 17.508263
755.093506 -1220.454712 22.818268
752.563477 -1231.554688 22.760265
806.803467 -1260.084717 -7.251732
792.713501 -1183.344727 9.468269
789.743469 -1173.224731 10.379265
789.913513 -1158.664673 8.859268
790.303467 -1130.754639 4.528267
794.663513 -1122.454712 0.588264
790.223511 -1080.984741 -8.698730
792.303467 -1048.154663 -22.897736
796.563477 -1010.319702 -45.688728
796.693481 -990.359680 -59.200737
791.023499 -989.389709 -56.223732
790.783508 -972.619690 -68.880730
792.583496 -943.989685 -96.387733
790.243469 -924.669678 -115.768730
792.123474 -910.689697 -135.684723
791.713501 -897.659668 -154.533722
795.463501 -886.049683 -179.609741
789.573486 -885.199707 -172.771729
793.973511 -877.709717 -194.070740
793.163513 -858.709717 -240.068756
727.733459 -1396.414673 -16.196732
736.353516 -1394.364746 -17.188736
723.033508 -1365.014648 -1.041733
731.323486 -1367.374756 -3.772736
721.513489 -1344.544678 6.788269
731.363464 -1342.884644 5.415268
722.383484 -1317.204712 14.875267
731.573486 -1322.124756 11.763268
742.523499 -1312.044678 12.650269
733.903503 -1297.234741 17.524269
730.983459 -1281.074707 21.137268
741.893494 -1281.634644 19.200264
730.113464 -1264.054688 23.951267
737.123474 -1256.174683 23.658268
738.583496 -1241.174683 24.957268
745.043457 -1235.554688 24.228268
730.963501 -1214.984741 27.298267
743.683472 -1198.794678 25.254265
735.293457 -1190.444702 26.221268
734.213501 -1175.524658 25.520267
733.473511 -1171.984741 25.377266
743.113464 -1158.704712 22.319267
732.243469 -1134.204712 20.338268
745.213501 -1126.354736 16.877266
731.323486 -1114.204712 16.311264
750.463501 -1113.964722 13.112267
736.023499 -1086.164673 7.941269
747.853516 -1084.494751 5.421265
733.813477 -1066.914673 1.739265
747.383484 -1069.274658 0.221268
741.043457 -1050.564697 -5.984734
747.443481 -1045.044678 -9.554733
736.813477 -1029.984619 -14.570732
745.533508 -1015.939697 -23.389732
747.083496 -1013.629700 -24.994736
741.283508 -1001.629700 -30.886734
740.993469 -993.359680 -35.807732
751.973511 -991.279724 -39.554733
733.263489 -961.169678 -57.088737
753.093506 -970.619690 -54.350731
737.953491 -951.009705 -66.467735
744.813477 -946.149719 -72.432732
732.443481 -925.979675 -88.296730
740.053467 -920.949707 -95.409737
738.693481 -913.079712 -103.787727
733.793457 -903.989685 -112.623741
740.493469 -897.899719 -122.499733
746.053467 -895.879700 -126.983727
751.003479 -888.299683 -138.876740
745.213501 -874.189697 -157.576721
759.943481 -869.759705 -173.151733
762.373474 -858.299683 -196.628754
777.053467 -853.429688 -223.702728
779.103516 -849.489685 -237.511749
781.873474 -845.969727 -253.155731
789.563477 -845.039673 -276.601746
800.013489 -847.939697 -316.012756
563.873474 -1400.074707 -32.015732
563.813477 -1386.234741 -24.855736
560.343506 -1390.874756 -28.845734
546.093506 -1392.244751 -37.758736
553.523499 -1300.804688 1.730263
553.303467 -1306.544678 0.162270
552.673462 -1324.154663 -5.208733
550.863464 -1330.924683 -8.397736
552.143494 -1344.154663 -12.372734
551.933472 -1347.264648 -13.632736
553.393494 -1376.414673 -25.348732
528.723511 -1291.314697 -14.147736
532.633484 -1108.194702 -13.347733
536.433472 -1086.474731 -17.129730
537.553467 -1172.204712 4.650269
536.773499 -1207.194702 5.792267
536.883484 -1343.734741 -21.927734
536.093506 -1394.474731 -47.480736
533.923462 -1097.834717 -15.580734
533.863464 -1136.324707 -4.024734
533.933472 -1258.214722 -0.668732
532.683472 -1324.954712 -18.953735
530.983459 -1371.994751 -41.804733
553.283508 -1111.004639 1.236267
549.263489 -1116.824707 1.112267
551.163513 -1126.904663 4.257263
546.293457 -1138.824707 4.863266
556.383484 -1154.404663 11.440269
544.863464 -1169.894653 8.603264
556.273499 -1181.364746 14.011269
546.093506 -1201.864746 10.840263
547.103516 -1209.074707 11.119263
551.023499 -1229.054688 11.917267
555.913513 -1239.374756 13.192268
548.713501 -1251.514648 8.821266
559.643494 -906.099670 -157.771729
553.813477 -928.939697 -129.875732
558.303467 -944.519714 -103.461739
559.833496 -972.399719 -72.616737
553.123474 -972.289673 -78.440727
555.983459 -1002.089722 -50.605736
554.223511 -1013.889709 -43.110733
555.163513 -1025.854614 -34.882736
533.223511 -1051.724731 -39.741737
536.883484 -1066.844727 -25.744736
544.953491 -1089.574707 -9.619736
542.463501 -1105.774658 -5.600731
540.553467 -1136.514648 1.239265
541.483459 -1153.164673 4.687263
544.893494 -1158.404663 7.415268
539.813477 -1165.254639 5.542267
542.733459 -1184.714722 8.689270
542.383484 -1197.754639 8.938263
542.063477 -1271.364746 2.544266
537.513489 -1320.114746 -12.811737
541.173462 -1329.714722 -13.468735
541.583496 -1354.904663 -22.951736
539.473511 -1387.784668 -40.456734
574.213501 -1404.024658 -29.800735
580.803467 -1388.314697 -19.682732
571.893494 -1374.084717 -16.230736
588.123474 -1369.994751 -9.344734
576.853516 -1344.744751 -3.121735
574.783508 -1338.444702 -1.659737
581.933472 -1333.694702 1.925270
580.363464 -1312.334717 7.620270
584.243469 -1302.034668 11.176270
577.853516 -1288.884644 12.371269
581.233459 -1287.104736 13.571266
581.493469 -1277.854736 15.406265
584.273499 -1257.414673 19.043266
580.033508 -1238.714722 19.951263
582.713501 -1226.484741 21.296265
575.703491 -1199.444702 20.199265
591.983459 -1204.064697 23.703266
578.233459 -1177.544678 19.768265
576.843506 -1161.124756 17.951263
586.273499 -1154.114746 19.027267
577.313477 -1136.374756 14.363266
588.803467 -1122.304688 14.028267
593.283508 -1104.214722 10.464264
577.373474 -1101.794678 6.486267
592.193481 -1081.944702 3.471268
590.113464 -1076.164673 1.117264
592.453491 -1069.884644 -0.770737
585.293457 -1054.024658 -8.928734
590.393494 -1034.874634 -16.562737
588.823486 -1031.214722 -18.995735
592.743469 -1014.819702 -26.893730
580.743469 -1007.329712 -35.305733
592.263489 -1005.179688 -33.088730
588.493469 -971.299683 -58.885735
593.823486 -967.339722 -60.093727
583.023499 -954.819702 -75.787727
595.623474 -940.519714 -83.778740
584.753479 -934.759705 -95.306740
592.993469 -933.399719 -92.634727
593.123474 -916.699707 -111.930733
633.413513 -884.469727 -138.728729
629.683472 -892.189697 -129.047729
628.293457 -889.379700 -133.480743
637.123474 -901.789673 -114.399727
625.473511 -904.319702 -114.534737
636.023499 -910.589722 -103.905739
620.373474 -917.949707 -99.643730
628.493469 -931.669678 -83.129738
619.173462 -935.429688 -81.464729
636.223511 -944.559692 -69.201729
618.253479 -956.929688 -62.022728
637.843506 -962.899719 -53.495735
630.353516 -981.819702 -40.690735
633.483459 -992.549683 -33.192734
629.243469 -996.309692 -31.362732
627.773499 -1004.019714 -26.656731
616.213501 -1024.284668 -16.861732
623.343506 -1026.324707 -14.878731
616.553467 -1044.644653 -6.941734
630.503479 -1053.744751 -1.539734
631.653503 -1060.424683 1.320267
634.433472 -1082.774658 9.562263
617.373474 -1079.864746 6.783264
618.443481 -1093.464722 11.272270
627.003479 -1102.014648 14.454269
631.213501 -1117.364746 18.654266
622.293457 -1130.964722 20.645267
630.763489 -1150.474731 24.694267
625.983459 -1152.924683 24.573265
623.223511 -1158.674683 25.096268
628.013489 -1179.004639 27.509266
626.283508 -1182.854736 27.567265
616.203491 -1203.274658 27.313267
619.243469 -1210.984741 27.621265
618.653503 -1223.294678 27.316265
616.763489 -1230.904663 26.830265
615.083496 -1246.524658 25.505268
629.323486 -1250.244751 26.861267
627.203491 -1268.024658 24.536266
629.773499 -1277.094727 23.512268
611.613464 -1291.394653 18.753265
624.153503 -1307.324707 16.993263
612.433472 -1302.874756 16.484268
621.523499 -1328.604736 11.222267
619.083496 -1339.384644 7.746269
609.133484 -1356.714722 0.393265
623.393494 -1372.114746 -3.247734
610.203491 -1377.254639 -7.425735
625.963501 -1387.204712 -9.077736
607.973511 -1403.364746 -19.666733
593.493469 -1405.734741 -24.421730
598.673462 -1390.134644 -15.594734
602.043457 -1384.024658 -11.963730
603.473511 -1380.094727 -9.960732
594.803467 -1352.344727 -1.088730
602.973511 -1356.994751 -0.965736
598.243469 -1336.524658 4.924263
604.693481 -1323.114746 10.168266
590.853516 -1319.834717 8.360268
600.573486 -1301.444702 14.748268
595.003479 -1292.844727 15.503265
610.573486 -1285.284668 19.719269
592.503479 -1274.474731 18.451263
599.713501 -1262.954712 21.341267
598.193481 -1238.164673 23.603268
608.353516 -1230.204712 25.770267
592.623474 -1222.134644 23.513268
604.583496 -1220.164673 25.508266
607.533508 -1201.714722 26.106266
606.143494 -1184.794678 25.319267
606.043457 -1179.064697 24.901268
607.433472 -1175.584717 24.826267
598.793457 -1153.654663 21.202267
608.773499 -1148.314697 21.919266
607.253479 -1136.424683 19.874268
606.003479 -1125.704712 17.540268
594.693481 -1107.624756 11.611267
605.413513 -1103.274658 12.130264
602.763489 -1083.794678 5.913269
614.423462 -1081.834717 7.082268
607.553467 -1057.364746 -3.044731
595.793457 -1042.724609 -11.577736
607.623474 -1035.154663 -13.005737
599.893494 -1026.714722 -18.750732
611.643494 -1019.139709 -20.599731
607.693481 -1005.939697 -28.938736
612.643494 -988.909668 -38.772736
600.793457 -988.409668 -41.940735
610.463501 -973.879700 -50.240730
595.723511 -962.799683 -63.172737
611.333496 -955.009705 -65.397728
613.993469 -949.769714 -69.085732
613.143494 -936.829712 -81.758736
603.323486 -929.229675 -93.111732
604.643494 -924.279724 -98.035728
596.843506 -911.819702 -116.107735
608.833496 -907.779724 -116.042732
599.393494 -903.839722 -125.262733
617.113464 -882.449707 -147.421722
630.283508 -873.259705 -157.198730
570.243469 -926.809692 -114.540733
571.543457 -944.999695 -92.052727
574.833496 -992.009705 -47.987740
573.853516 -1008.809692 -36.826736
561.543457 -1014.159668 -38.825737
571.543457 -1035.334717 -22.131737
572.173462 -1041.204712 -18.709732
564.563477 -1051.294678 -16.639732
565.753479 -1062.104736 -11.284737
572.683472 -1066.254639 -7.162735
562.463501 -1079.804688 -5.331734
574.493469 -1092.734741 2.909264
574.253479 -1122.444702 10.943268
562.383484 -1115.614746 5.781265
572.053467 -1126.634644 11.249268
568.823486 -1142.704712 13.319267
572.893494 -1147.134644 15.265266
562.703491 -1164.134644 14.514267
562.223511 -1174.854736 15.472267
562.293457 -1183.724731 16.014267
558.923462 -1197.664673 15.663269
565.213501 -1225.044678 16.979263
565.513489 -1237.714722 16.285263
560.663513 -1259.654663 12.390266
560.283508 -1261.214722 12.045265
566.603516 -1283.104736 10.332268
559.503479 -1288.824707 6.788269
558.533508 -1326.394653 -3.459732
560.803467 -1347.884644 -9.992737
560.063477 -1355.204712 -13.130737
561.843506 -1372.394653 -19.573730
811.693481 -1055.214722 -33.745735
811.883484 -1049.154663 -36.655731
810.213501 -1032.334717 -43.523735
810.913513 -1011.029724 -57.113731
814.623474 -1010.999695 -61.859734
811.313477 -891.199707 -208.753754
811.213501 -882.259705 -233.793732
809.123474 -877.249695 -239.480743
808.533508 -873.399719 -249.545746
810.653503 -874.219727 -260.782745
807.563477 -866.159668 -272.753754
655.013489 -807.579712 -310.270752
647.483459 -812.529724 -294.248749
640.463501 -818.789673 -276.885742
629.113464 -829.959717 -250.078735
626.043457 -830.809692 -250.052734
617.153503 -844.589722 -220.330750
606.443481 -862.059692 -189.476746
602.043457 -864.469727 -188.122742
599.043457 -872.999695 -174.340729
593.023499 -874.719727 -176.138733
588.563477 -879.399719 -171.326721
577.623474 -880.739685 -180.295746
576.513489 -884.549683 -174.258728
571.773499 -892.389709 -165.322723
559.673462 -894.479675 -179.880737
547.833496 -905.239685 -184.519745
547.103516 -914.939697 -166.637726
544.553467 -919.179688 -165.835724
534.303467 -936.849670 -179.795746
533.083496 -947.089722 -169.066742
809.673462 -1056.274658 -31.157730
807.543457 -1031.334717 -41.682732
809.283508 -1000.829712 -62.578728
804.673462 -989.849670 -65.769737
807.993469 -973.609680 -82.584740
807.933472 -960.989685 -94.487740
803.803467 -920.159668 -136.569733
806.863464 -908.079712 -160.827728
805.143494 -907.479675 -158.438721
805.323486 -889.479675 -192.587738
805.563477 -869.799683 -246.977753
802.323486 -868.379700 -237.768738
806.603516 -862.969727 -280.254730
804.453491 -853.749695 -318.636749
709.603516 -811.209717 -290.911743
702.783508 -810.829712 -290.801727
703.883484 -816.959717 -269.326752
683.143494 -814.549683 -275.294739
663.363464 -817.989685 -267.224731
655.843506 -823.289673 -254.325745
651.483459 -829.619690 -238.595734
647.493469 -838.299683 -218.510742
662.023499 -843.839722 -201.547729
659.753479 -847.819702 -193.771729
658.763489 -848.419678 -192.793732
649.663513 -855.169678 -182.544739
649.023499 -862.379700 -169.358734
648.133484 -864.919678 -165.240723
652.553467 -875.719727 -146.829742
656.753479 -881.469727 -137.804749
646.923462 -884.979675 -134.684723
661.933472 -892.129700 -122.237740
644.343506 -898.809692 -116.708733
659.463501 -910.129700 -100.948738
644.003479 -914.259705 -98.487740
659.983459 -931.159668 -79.022728
644.513489 -929.459717 -82.421730
646.303467 -943.019714 -69.289726
655.443481 -941.069702 -70.063728
647.283508 -949.949707 -63.306740
648.953491 -963.929688 -51.704735
652.733459 -973.559692 -44.214729
648.813477 -981.659668 -38.751732
640.353516 -993.399719 -31.771736
655.403503 -999.349670 -26.836731
641.793457 -1013.659668 -19.660736
656.693481 -1031.724609 -9.412735
639.823486 -1041.944702 -5.530731
646.643494 -1046.234741 -3.322731
638.223511 -1054.084717 -0.583733
649.863464 -1061.544678 3.155266
646.623474 -1068.814697 5.615265
655.453491 -1079.994751 9.945267
657.303467 -1084.574707 11.599266
638.803467 -1108.734741 17.387268
648.573486 -1106.114746 17.205269
654.723511 -1118.834717 20.443268
655.293457 -1128.714722 22.640266
657.363464 -1141.494751 24.916267
643.293457 -1151.484741 25.762268
651.963501 -1160.204712 27.299267
648.403503 -1174.504639 28.590267
649.563477 -1187.554688 29.478268
650.823486 -1199.944702 30.132267
652.093506 -1206.804688 30.231266
646.443481 -1219.274658 29.839268
656.213501 -1240.884644 29.454266
634.343506 -1237.334717 28.273266
636.823486 -1249.444702 27.641266
634.343506 -1251.724731 27.221268
655.763489 -1271.104736 26.438267
638.463501 -1287.494751 22.512268
643.543457 -1299.254639 20.666267
652.773499 -1316.654663 17.513268
653.693481 -1318.044678 17.230263
639.663513 -1326.504639 13.823265
652.973511 -1353.364746 6.667267
636.113464 -1348.534668 6.877266
646.773499 -1372.264648 -0.783737
646.853516 -1368.784668 0.588264
648.413513 -1383.374756 -5.037735
646.773499 -1392.144653 -9.172737
647.713501 -1402.664673 -13.903732
613.223511 -1551.194702 -200.419739
598.883484 -1588.294678 -363.133728
575.063477 -1581.204712 -321.230743
606.003479 -1491.214722 -102.797737
724.313477 -1503.804688 -127.277733
630.723511 -1588.224731 -335.896729
665.373474 -1586.714722 -320.359741
657.783508 -1586.254639 -317.926727
664.423462 -1583.734741 -304.939728
635.813477 -1572.864746 -259.478729
641.673462 -1577.364746 -276.070740
625.893494 -1582.394653 -300.476746
669.633484 -1589.564697 -336.726746
677.313477 -1587.324707 -323.327728
673.773499 -1584.074707 -307.283752
677.783508 -1579.174683 -286.154755
701.873474 -1578.024658 -286.028748
700.923462 -1575.294678 -276.138733
707.713501 -1566.054688 -248.285736
712.583496 -1583.154663 -307.295746
705.023499 -1582.704712 -304.353729
716.563477 -1577.234741 -286.509735
710.203491 -1577.334717 -285.443756
715.083496 -1574.904663 -278.281738
710.873474 -1574.194702 -274.711731
716.993469 -1584.764648 -313.697754
714.193481 -1584.204712 -311.275726
723.683472 -1577.744751 -289.697754
726.033508 -1571.214722 -269.477753
734.803467 -1568.284668 -264.027740
648.813477 -1560.564697 -221.925751
644.983459 -1561.424683 -224.136749
620.173462 -1562.094727 -227.029755
659.553467 -1573.214722 -261.297729
685.593506 -1523.844727 -149.630737
687.673462 -1531.464722 -163.427734
678.073486 -1530.614746 -160.144745
687.953491 -1544.244751 -188.678741
675.093506 -1543.904663 -185.717743
678.063477 -1551.984741 -204.091736
670.213501 -1554.114746 -207.959747
675.873474 -1558.974731 -220.875732
724.523499 -1557.324707 -230.392731
752.073486 -1541.354736 -206.219727
752.893494 -1539.104736 -201.892731
739.753479 -1551.874756 -223.501740
708.813477 -1563.984741 -242.496735
714.743469 -1559.464722 -232.172729
706.453491 -1557.364746 -224.148743
706.963501 -1554.704712 -217.354736
718.403503 -1542.674683 -193.777740
713.623474 -1539.974731 -186.644745
730.503479 -1531.974731 -176.671753
760.963501 -1524.604736 -178.818756
754.563477 -1532.174683 -189.233734
752.543457 -1528.534668 -181.068756
740.423462 -1536.704712 -190.565735
709.223511 -1550.214722 -207.629730
732.833496 -1583.694702 -311.175751
743.563477 -1578.144653 -295.220734
739.923462 -1572.904663 -279.006744
739.713501 -1571.994751 -276.175751
691.563477 -1512.724731 -132.515747
681.033508 -1520.234741 -142.804749
671.943481 -1523.914673 -147.899719
670.923462 -1529.324707 -156.867737
671.083496 -1539.114746 -175.125732
666.383484 -1542.294678 -181.186737
658.573486 -1546.774658 -189.929749
659.963501 -1552.404663 -202.605743
662.963501 -1558.464722 -217.746735
685.123474 -1405.414673 -15.486732
655.243469 -1423.074707 -29.030731
654.193481 -1405.614746 -15.147736
641.293457 -1413.544678 -22.322731
773.113464 -1501.804688 -149.942719
760.073486 -1513.584717 -159.207733
760.383484 -1504.074707 -144.334747
757.283508 -1513.554688 -157.421722
746.593506 -1507.134644 -141.333740
779.933472 -1483.134644 -128.972748
780.283508 -1480.844727 -126.311729
767.253479 -1484.444702 -120.777733
763.753479 -1485.254639 -119.529732
743.283508 -1481.364746 -103.570732
770.853516 -1489.964722 -130.901733
766.753479 -1498.654663 -140.409729
759.653503 -1494.124756 -129.250732
755.683472 -1497.424683 -131.688721
753.083496 -1495.134644 -126.958733
784.843506 -1446.374756 -89.819740
754.083496 -1449.574707 -71.768730
750.163513 -1448.984741 -69.190727
740.403503 -1455.634644 -72.397728
790.513489 -1429.324707 -78.602730
777.223511 -1443.574707 -79.922737
767.953491 -1439.264648 -68.949730
759.123474 -1432.714722 -57.384727
757.313477 -1445.844727 -69.488731
744.993469 -1438.954712 -57.092735
737.553467 -1447.864746 -63.219734
729.963501 -1443.774658 -56.702736
725.593506 -1443.694702 -55.382729
782.133484 -1465.524658 -108.793739
777.433472 -1460.814697 -99.015739
751.773499 -1471.824707 -95.765739
742.413513 -1473.814697 -93.952736
735.603516 -1476.594727 -94.626732
538.703491 -1538.094727 -209.972748
526.943481 -1482.794678 -143.386719
577.153503 -1532.554688 -171.661743
595.563477 -1520.844727 -146.379730
577.933472 -1518.474731 -147.815735
575.123474 -1517.774658 -147.758728
596.913513 -1505.784668 -123.770729
610.663513 -1506.774658 -122.541740
595.933472 -1501.034668 -117.484734
627.373474 -1504.384644 -117.352730
637.183472 -1506.454712 -119.513741
658.863464 -1505.514648 -118.220726
661.623474 -1509.414673 -124.047737
664.363464 -1509.014648 -123.688728
640.853516 -1524.334717 -146.912720
636.153503 -1528.114746 -153.409729
624.463501 -1516.614746 -135.430725
618.433472 -1509.564697 -125.470726
606.373474 -1510.504639 -128.519745
594.113464 -1514.254639 -136.588745
590.993469 -1511.504639 -133.326721
567.763489 -1512.734741 -142.843719
581.493469 -1480.414673 -95.985741
556.753479 -1530.864746 -178.674744
533.043457 -1448.414673 -93.151741
530.183472 -1446.764648 -96.282738
528.473511 -1408.874756 -69.272728
549.563477 -1498.574707 -133.368744
535.573486 -1421.814697 -66.880730
545.753479 -1460.564697 -91.927727
546.823486 -1464.244751 -94.974739
559.763489 -1501.254639 -130.667725
560.553467 -1430.104736 -55.369728
555.133484 -1424.314697 -53.455727
543.063477 -1407.754639 -49.179741
556.843506 -1480.124756 -105.912727
562.033508 -1485.524658 -109.588737
577.523499 -1487.224731 -105.293739
571.303467 -1418.034668 -40.998734
573.783508 -1435.164673 -54.007729
579.773499 -1436.174683 -52.707741
579.753479 -1411.694702 -32.993736
602.383484 -1459.234741 -67.937737
596.753479 -1459.384644 -69.432732
617.363464 -1417.454712 -28.101730
627.523499 -1442.214722 -47.577736
636.543457 -1443.574707 -48.143730
657.633484 -1442.444702 -46.122734
658.073486 -1455.734741 -59.043739
687.403503 -1439.654663 -44.683739
683.313477 -1453.254639 -57.658730
693.583496 -1446.604736 -52.098732
707.643494 -1449.784668 -57.462730
723.213501 -1466.334717 -78.528740
731.213501 -1487.524658 -106.965736
740.083496 -1496.634644 -122.797737
746.443481 -1509.644653 -145.299744
606.373474 -1418.654663 -31.102730
618.333496 -1434.024658 -41.784737
625.423462 -1444.324707 -49.832741
636.983459 -1455.154663 -59.312737
631.653503 -1461.254639 -65.727730
660.013489 -1461.214722 -64.676735
659.033508 -1469.404663 -73.489738
687.433472 -1457.044678 -61.755730
677.013489 -1468.304688 -73.078728
690.843506 -1461.694702 -67.141731
709.793457 -1455.724731 -63.802727
722.153503 -1488.284668 -105.014732
725.423462 -1498.814697 -120.349739
735.973511 -1512.164673 -144.537720
687.443481 -1492.584717 -103.271736
664.373474 -1502.314697 -113.937737
659.073486 -1494.674683 -103.680733
643.833496 -1501.924683 -113.101738
638.863464 -1500.674683 -111.662727
626.483459 -1484.104736 -91.493736
620.943481 -1479.494751 -86.652733
612.673462 -1471.214722 -78.752739
593.903503 -1472.304688 -83.563728
586.393494 -1465.894653 -78.546730
572.103516 -1468.634644 -86.318733
568.673462 -1408.284668 -34.601730
525.493469 -1558.704712 -334.214752
547.673462 -1577.944702 -376.033752
527.453491 -1562.664673 -416.055756
535.373474 -1571.864746 -375.503754
537.013489 -1572.694702 -363.974731
537.643494 -1571.614746 -339.921753
557.213501 -1577.134644 -319.686737
559.073486 -1576.564697 -312.733734
524.823486 -1559.294678 -383.917755
546.313477 -1569.594727 -296.149750
555.683472 -1580.634644 -385.760742
525.833496 -1542.394653 -256.549744
525.153503 -1543.424683 -266.085754
524.873474 -1554.624756 -318.122742
527.193481 -1517.274658 -193.049744
526.563477 -1547.894653 -268.445740
532.353516 -1543.764648 -234.869751
530.873474 -1563.224731 -312.513733
529.393494 -1529.144653 -208.701752
529.013489 -1552.894653 -273.293732
540.493469 -1559.634644 -265.449738
539.863464 -1557.944702 -260.899750
539.133484 -1555.004639 -252.509735
542.573486 -1563.494751 -275.761749
542.033508 -1549.794678 -233.241730
560.203491 -1555.474731 -229.880737
551.493469 -1541.864746 -204.331726
536.963501 -1512.424683 -165.206726
535.713501 -1506.234741 -157.020721
530.833496 -1476.104736 -125.165733
529.123474 -1467.834717 -119.578728
551.433472 -1546.104736 -213.655731
549.723511 -1551.884644 -229.689728
541.493469 -1534.334717 -198.429749
540.623474 -1529.664673 -190.395752
534.373474 -1514.734741 -172.391754
528.023499 -1477.554688 -133.209747
532.113464 -1532.554688 -209.445740
534.153503 -1551.844727 -253.077728
535.343506 -1555.864746 -263.494751
565.503479 -1583.154663 -367.899750
572.543457 -1578.634644 -307.607727
547.543457 -1577.614746 -361.523743
538.683472 -1573.694702 -387.727753
547.353516 -1574.624756 -324.698730
533.633484 -1570.264648 -362.174744
703.293457 -1534.634644 -172.813751
703.243469 -1537.364746 -178.200745
701.453491 -1545.104736 -193.649750
687.003479 -1554.254639 -211.221741
694.313477 -1557.044678 -219.843750
692.983459 -1561.414673 -231.093750
691.773499 -1567.834717 -249.395752
690.113464 -1570.054688 -255.762756
678.063477 -1575.094727 -270.463745
662.523499 -1579.284668 -284.921753
625.223511 -1585.964722 -321.671753
602.473511 -1587.534668 -347.299744
616.253479 -1587.574707 -337.518738
623.803467 -1587.414673 -332.425751
652.173462 -1584.374756 -307.998749
662.613464 -1581.984741 -296.854736
662.623474 -1580.734741 -290.925751
708.043457 -1568.194702 -254.786743
760.123474 -1546.634644 -222.287750
765.983459 -1542.514648 -217.067749
570.493469 -1566.724731 -257.065735
588.603516 -1558.814697 -224.788727
584.163513 -1561.764648 -234.565735
587.703491 -1567.784668 -251.680756
580.993469 -1546.974731 -198.675751
574.903503 -1554.354736 -218.562744
605.973511 -1568.564697 -248.503754
594.113464 -1575.394653 -276.768738
596.713501 -1580.114746 -298.173737
595.063477 -1581.944702 -309.482727
602.953491 -1584.864746 -323.472748
590.773499 -1585.114746 -335.838745
618.293457 -1551.584717 -200.612732
634.963501 -1548.744751 -193.437744
611.213501 -1538.364746 -174.003754
606.243469 -1540.504639 -178.885742
594.573486 -1546.104736 -192.574738
693.923462 -1501.144653 -115.855736
674.843506 -1514.664673 -133.052734
663.763489 -1518.864746 -138.621735
643.893494 -1530.754639 -157.768738
638.563477 -1541.484741 -178.003754
645.003479 -1543.394653 -181.976746
636.453491 -1546.234741 -187.910736
636.123474 -1557.034668 -212.675751
616.443481 -1561.294678 -225.094727
612.583496 -1534.624756 -166.788727
593.743469 -1537.144653 -174.922729
582.103516 -1538.404663 -180.882751
570.383484 -1541.224731 -191.222748
567.383484 -1541.554688 -193.382751
610.933472 -1574.334717 -267.389740
615.503479 -1574.284668 -266.574738
612.403503 -1576.524658 -276.048737
618.893494 -1576.284668 -274.066742
613.863464 -1581.454712 -298.688751
607.523499 -1583.604736 -312.624756
530.123474 -1452.574707 -101.911736
529.403503 -1459.904663 -110.481728
539.133484 -1504.554688 -150.604736
550.943481 -1524.204712 -170.857727
552.613464 -1535.794678 -190.764740
565.183472 -1552.834717 -220.040741
568.573486 -1558.324707 -232.489746
572.803467 -1564.014648 -246.299744
579.733459 -1567.854736 -255.589752
584.583496 -1577.294678 -290.689728
577.723511 -1578.674683 -302.701752
584.613464 -1582.344727 -320.127747
582.323486 -1583.134644 -329.094727
581.533508 -1583.784668 -335.679749
578.423462 -1584.374756 -346.847748
790.433472 -1396.394653 -49.564735
776.863464 -1397.824707 -37.928734
771.753479 -1407.144653 -41.971733
731.293457 -1403.204712 -21.025734
731.853516 -1414.614746 -30.550735
702.293457 -1412.984741 -23.149734
697.983459 -1411.504639 -21.385735
692.213501 -1421.224731 -28.672737
771.323486 -1515.044678 -169.728729
717.433472 -1532.944702 -173.765747
712.093506 -1516.164673 -142.922729
704.243469 -1513.674683 -136.656738
721.883484 -1498.574707 -118.809731
712.153503 -1503.674683 -123.786736
716.793457 -1485.224731 -99.397728
708.713501 -1474.974731 -85.003731
702.823486 -1483.674683 -94.371727
693.903503 -1478.024658 -86.151741
672.923462 -1483.754639 -90.667732
667.543457 -1482.524658 -88.719734
664.063477 -1478.764648 -84.084740
649.263489 -1482.384644 -88.286736
637.893494 -1479.694702 -85.479729
632.743469 -1472.594727 -77.815727
621.663513 -1465.084717 -70.854729
603.013489 -1455.634644 -64.324730
599.993469 -1434.464722 -45.595726
583.923462 -1414.514648 -33.790733
635.543457 -1422.134644 -29.593735
646.513489 -1427.044678 -32.787735
656.153503 -1434.974731 -39.449730
650.963501 -1441.004639 -44.792732
673.373474 -1428.304688 -33.589737
674.183472 -1439.874756 -43.922737
713.623474 -1436.634644 -45.573738
724.833496 -1428.734741 -41.004730
724.323486 -1435.804688 -47.229729
741.243469 -1418.694702 -36.964737
745.613464 -1424.204712 -43.504730
748.023499 -1417.804688 -38.703735
757.233459 -1424.954712 -49.304741
761.003479 -1417.574707 -44.544731
763.513489 -1419.004639 -47.138741
765.763489 -1418.614746 -48.123741
773.813477 -1425.294678 -59.447731
777.713501 -1427.984741 -64.753731
784.393494 -1416.364746 -60.048729
789.053467 -1422.254639 -70.185738
539.813477 -1416.014648 -58.196739
542.593506 -1420.594727 -59.199730
545.213501 -1430.844727 -65.421730
588.173462 -1484.064697 -98.145729
598.193481 -1480.904663 -92.133736
584.973511 -1494.564697 -111.686729
588.653503 -1525.284668 -155.365723
617.633484 -1530.874756 -159.404724
624.423462 -1526.784668 -151.861725
623.393494 -1539.894653 -175.532745
607.183472 -1548.024658 -194.449738
593.073486 -1561.134644 -229.562744
595.713501 -1564.004639 -236.682739
613.133484 -1565.504639 -237.378754
668.093506 -1569.544678 -250.216736
670.193481 -1570.664673 -254.196747
672.093506 -1573.544678 -263.894745
668.803467 -1574.674683 -267.617737
590.003479 -1586.274658 -349.406738
577.323486 -1585.364746 -368.589752
