ply
format ascii 1.0
element vertex 1338
property float x
property float y
property float z
end_header
-539.356445 2750.155762 -317.403931
-462.253510 2754.025879 -327.435913
-531.311462 2750.545898 -315.550934
-480.593506 2752.925781 -305.430908
-498.516510 2752.175781 -319.685913
-468.036499 2753.605469 -311.115936
-534.106445 2750.545898 -332.870911
-530.213501 2750.575684 -314.538910
-517.656494 2751.175781 -310.958923
-506.051514 2752.225586 -366.283936
-449.948517 2754.295898 -299.600922
-498.031494 2751.825684 -281.930908
-467.278503 2753.325684 -290.753937
-506.636505 2751.155762 -271.645935
-430.801514 2754.325684 -279.180908
-481.868500 2752.125488 -272.560913
-919.763489 1065.788696 -560.748901
-456.996490 2754.325684 -378.928925
-439.863495 2755.075684 -332.643921
-430.396515 2755.305664 -407.475922
-431.026489 2755.405762 -334.355927
-465.873505 2753.975586 -380.915924
-439.831512 2755.025879 -358.265930
-457.388489 2754.255859 -404.570923
-435.303497 2755.225586 -344.005920
-520.828491 2751.775879 -416.638916
-489.366516 2753.025879 -396.080933
-424.908508 2755.625488 -343.158936
-468.293518 2753.925781 -360.465912
-409.746490 2755.675781 -357.825928
-689.636475 2641.065918 -223.885910
-686.806458 2683.775879 -224.310913
-683.436462 2703.825684 -224.815903
-683.228455 2719.705566 -224.848907
-703.926453 2609.545898 -221.253906
-694.081482 2618.935547 -223.028900
-699.121460 2681.875488 -222.418900
-715.038452 2702.995605 -219.985901
-704.721497 2694.625488 -221.488907
-705.683472 2635.105469 -221.083908
-715.846497 2706.855469 -219.880905
-720.438477 2586.425781 -218.308899
-715.568481 2601.545898 -219.293900
-717.491455 2623.265625 -219.145905
-686.958496 2728.745605 -251.505905
-701.421448 2726.425781 -244.560898
-714.611450 2724.475586 -243.160904
-925.283447 1065.773682 -558.060913
-481.391510 2751.825684 -262.905914
-469.581512 2752.205566 -259.560913
-453.706512 2719.725586 -258.040924
-459.033508 2661.515625 -258.040924
-439.723511 2752.175781 -258.040924
-452.566498 2733.925781 -258.040924
-463.766510 2664.325684 -258.040924
-472.821503 2694.475586 -258.040924
-441.598511 2650.965820 -258.040924
-471.813507 2692.705566 -258.040924
-420.031494 2673.725586 -258.040924
-416.971497 2677.125488 -258.040924
-425.346497 2646.885742 -258.040924
-447.633514 2729.255859 -258.040924
-413.178497 2617.515625 -258.040924
-435.736511 2680.425781 -258.040924
-457.451508 2687.405762 -258.040924
-475.968506 2736.045898 -258.040924
-457.053497 2696.855469 -258.040924
-456.043518 2720.745605 -258.040924
-449.291504 2680.305664 -258.040924
-498.006500 2627.625488 -258.040924
-477.633514 2640.815918 -258.040924
-423.416504 2602.235840 -258.040924
-518.476501 2672.155762 -258.040924
-490.291504 2619.015625 -258.040924
-467.593506 2629.585938 -258.040924
-500.913513 2652.545898 -258.040924
-509.618500 2625.985840 -258.043915
-518.858459 2631.725586 -258.043915
-518.586487 2644.535645 -258.040924
-464.891510 2627.895508 -258.040924
-427.881500 2604.285645 -258.040924
-515.163452 2628.385742 -258.043915
-483.216492 2648.515625 -258.040924
-503.756500 2597.875488 -258.043915
-534.293457 2732.605469 -258.040924
-481.588501 2669.875488 -258.040924
-493.981506 2668.775879 -258.040924
-717.983459 2717.905762 -311.888916
-740.988464 2721.775879 -288.293915
-740.753479 2721.205566 -264.393921
-777.201477 2716.605469 -296.363922
-769.683472 2716.875488 -257.015930
-751.176453 2720.525879 -300.065918
-737.271484 2641.565918 -209.885910
-742.816467 2623.945801 -205.563904
-743.813477 2610.245605 -204.435913
-749.356445 2615.525879 -200.883911
-739.166443 2613.325684 -207.665909
-733.501465 2622.635742 -211.788910
-730.243469 2618.735840 -213.848907
-768.391479 2695.505859 -191.733902
-747.783447 2668.675781 -203.890900
-765.176453 2697.425781 -193.875900
-763.523499 2642.615723 -192.710907
-761.528503 2691.245605 -195.970901
-762.513489 2627.415527 -192.741913
-742.391479 2715.175781 -209.250900
-749.248474 2715.795898 -212.603912
-759.868469 2717.575684 -222.813904
-752.193481 2718.955566 -237.180908
-771.578491 2716.175781 -237.990906
-921.471497 2040.255737 -287.448914
-952.963501 2037.625732 -281.653931
-971.813477 2038.515747 -283.608917
-940.191467 2043.085693 -293.680908
-978.826477 2038.305664 -283.133911
-971.498474 2056.155762 -322.513916
-989.773499 2053.305664 -316.238922
-974.853455 2064.525879 -340.993927
-977.363464 2049.835693 -308.585907
-983.013489 2034.055664 -273.765930
-963.453491 2036.375732 -278.893921
-998.036499 2035.495728 -274.725922
-997.506470 2078.295654 -267.168915
-996.236450 2060.675781 -311.515930
-997.348450 2078.255859 -271.585907
-996.956482 2100.645752 -274.048920
-995.043457 2122.825684 -323.983917
-995.116455 2078.805664 -334.693909
-995.098450 2115.725586 -324.405914
-995.943481 2133.235840 -297.598907
-997.573486 2129.095703 -254.238907
-996.566467 2126.115723 -281.010925
-995.293457 2164.865723 -314.858917
-996.623474 2136.235840 -279.505920
-996.686462 2138.265625 -277.840912
-998.098450 2129.505859 -240.310913
-997.691467 2192.015625 -247.708908
-997.763489 2221.105469 -243.778900
-997.791443 2196.875488 -244.603897
-997.456482 2219.725586 -252.258896
-997.778503 2222.615723 -243.285904
-996.038452 2167.395752 -294.480927
-993.056458 2198.675781 -310.115936
-989.861450 2248.335938 -287.253937
-996.791443 2233.245605 -250.125900
-995.061462 2180.145752 -312.648926
-989.888489 2226.315918 -307.668915
-985.688477 2262.695801 -304.673920
-985.661499 2310.625488 -269.255920
-989.736450 2296.775879 -251.248917
-984.006470 2340.825684 -258.353912
-984.088501 2348.085938 -252.403915
-985.261475 2322.005859 -263.590912
-987.126465 2319.045898 -252.835892
-991.781494 2279.225586 -250.053909
-986.013489 2294.885742 -278.475922
-984.273499 2309.885742 -280.278931
-984.026489 2296.025879 -300.595917
-983.193481 2352.055664 -260.955933
-982.743469 2358.385742 -264.738922
-981.806458 2369.135742 -275.163910
-984.273499 2288.865723 -302.335907
-997.953491 2233.245605 -234.023911
-988.266479 2326.985840 -237.473907
-979.408447 2393.945801 -239.690903
-976.261475 2405.415527 -261.498932
-981.276489 2381.555664 -255.248917
-973.901489 2415.025879 -272.685913
-976.241455 2406.515625 -256.413910
-967.348450 2450.695801 -257.823914
-969.073486 2436.575684 -285.953918
-964.773499 2465.195801 -249.505905
-969.966492 2434.495605 -273.770935
-973.248474 2417.685547 -275.825928
-979.158447 2397.985840 -233.263901
-977.923462 2402.015625 -238.555908
-943.948486 2515.125488 -269.840912
-921.143494 2566.795898 -254.958908
-957.521484 2483.105469 -296.103912
-922.218445 2564.315918 -256.308929
-938.366455 2527.805664 -265.778931
-933.778503 2539.105469 -250.163895
-948.396484 2505.385742 -267.923920
-931.121460 2544.945801 -251.010910
-933.053467 2537.625488 -293.775909
-907.678467 2593.735840 -297.645935
-928.823486 2547.115723 -292.433929
-935.363464 2533.845703 -274.318909
-903.293457 2603.535645 -296.860931
-922.211487 2562.485840 -282.740936
-938.731445 2524.595703 -299.690918
-918.366455 2571.225586 -279.905914
-949.883484 2506.635742 -235.238907
-921.976501 2566.425781 -234.443909
-895.578491 2615.235840 -271.485931
-852.746460 2668.825684 -246.158920
-886.746460 2626.925781 -241.538910
-901.343445 2608.465820 -257.848907
-880.288452 2634.225586 -267.705933
-897.696472 2612.025879 -294.543915
-883.846497 2630.155762 -255.313919
-841.431458 2681.955566 -277.930908
-847.923462 2673.855469 -280.835907
-848.176453 2672.975586 -301.860931
-839.176453 2685.055664 -266.605927
-832.383484 2693.805664 -253.020920
-852.271484 2668.075684 -295.748932
-831.336487 2694.655762 -268.800934
-849.808472 2672.825684 -231.963913
-854.748474 2666.625488 -235.280899
-669.491455 2732.925781 -302.803925
-625.041443 2738.905762 -291.973907
-657.996460 2733.605469 -271.603912
-605.668457 2741.455566 -285.110931
-620.586487 2739.475586 -289.943909
-630.371460 2737.355469 -265.878937
-550.976501 2749.105469 -282.263916
-605.958496 2741.945801 -303.960907
-559.231445 2748.625488 -305.875916
-573.528503 2746.205566 -292.350922
-670.236450 2704.105469 -233.983902
-670.236450 2651.165527 -235.490906
-670.236450 2681.875488 -238.760910
-670.236450 2729.925781 -252.123917
-670.236450 2675.655762 -248.093918
-670.236450 2612.285645 -252.375900
-670.236450 2622.795898 -255.238907
-670.236450 2692.405762 -254.080917
-663.843445 2690.005859 -256.775909
-663.901489 2726.275879 -256.773926
-660.681458 2664.755859 -256.915924
-617.938477 2670.105469 -257.338928
-627.438477 2635.445801 -257.245911
-622.673462 2680.495605 -257.293915
-654.956482 2605.695801 -256.980927
-602.296448 2603.265625 -257.490936
-652.391479 2721.675781 -257.005920
-604.868469 2657.485840 -257.465912
-656.571472 2660.135742 -256.965912
-646.918457 2615.485840 -257.058929
-613.011475 2618.465820 -257.385925
-577.348450 2596.645508 -257.733917
-549.756470 2597.355469 -258.000916
-576.641479 2625.225586 -257.738922
-650.748474 2676.295898 -257.020935
-624.468445 2669.425781 -257.275909
-560.983459 2609.045898 -257.890930
-589.758484 2737.405762 -257.610931
-566.471497 2655.575684 -257.838928
-603.371460 2699.155762 -257.480927
-584.556458 2690.795898 -257.663910
-558.361450 2665.545898 -257.915924
-610.656494 2702.855469 -257.410919
-594.338501 2727.275879 -257.568909
-607.488464 2731.755859 -257.440918
-599.851501 2724.605469 -257.513916
-565.371460 2667.175781 -257.848907
-636.511475 2709.175781 -257.158936
-613.196472 2724.775879 -257.385925
-577.456482 2660.895508 -257.730927
-585.178467 2652.325684 -257.655914
-546.771484 2710.505859 -258.028931
-584.526489 2714.955566 -257.663910
-975.666443 2096.975586 -186.933899
-930.658447 2105.485840 -186.933899
-914.273499 2103.925781 -186.933899
-973.926453 2108.875732 -186.933899
-989.943481 2088.545654 -186.933899
-984.543457 2099.665527 -186.933899
-666.663452 2729.045898 -399.540924
-661.418457 2733.275879 -323.728912
-603.698486 2739.525879 -399.153931
-548.226501 2749.905762 -340.440918
-549.563477 2749.705566 -337.060913
-592.451477 2741.625488 -388.188934
-555.193481 2748.075684 -406.290924
-575.076477 2744.805664 -378.318909
-587.416443 2742.575684 -381.613922
-580.363464 2743.625488 -405.188934
-553.081482 2748.825684 -364.983917
-559.746460 2747.175781 -416.685913
-609.918457 2738.355469 -406.718933
-586.978455 2742.605469 -388.380920
-640.643494 2733.575684 -386.903931
-590.116455 2742.705566 -346.688934
-557.568481 2748.575684 -320.888916
-578.398499 2745.155762 -329.860931
-600.566467 2740.655762 -358.708923
-622.568481 2738.375488 -337.148926
-652.043457 2732.775879 -367.338928
-614.928467 2740.275879 -318.975922
-623.386475 2738.205566 -338.710907
-618.438477 2739.955566 -314.888916
-588.691467 2744.505859 -309.793915
-628.173462 2738.405762 -317.848907
-942.091492 2033.015747 -271.488922
-984.928467 2027.565674 -259.450928
-935.301453 2020.675659 -244.253922
-952.861450 2022.655762 -248.625900
-998.941467 2074.525879 -224.660904
-998.596497 2076.945801 -234.550903
-999.418457 2038.515747 -233.038910
-999.298462 2044.605713 -232.543900
-999.298462 2079.525879 -210.045914
-999.101501 2117.735840 -213.693909
-998.568481 2095.815674 -227.818909
-998.186462 2144.675781 -237.523911
-998.838501 2179.535645 -219.818909
-999.291443 2206.485840 -207.335907
-998.783447 2155.065674 -221.700912
-999.071472 2146.225586 -214.138901
-998.533447 2139.465820 -228.618912
-988.076477 2337.995605 -212.080902
-985.281494 2357.205566 -231.723907
-995.361450 2259.035645 -232.270905
-996.308472 2251.015625 -217.415909
-995.018494 2264.775879 -212.440903
-992.651489 2290.075684 -203.270905
-991.788452 2299.245605 -210.725906
-996.971497 2243.965820 -210.075912
-972.206482 2436.315918 -228.580902
-976.833496 2412.235840 -224.808899
-969.121460 2455.385742 -216.535904
-981.743469 2386.115723 -223.770905
-979.806458 2397.945801 -216.980911
-968.958496 2458.995605 -203.423904
-940.591492 2530.045898 -228.390900
-947.911499 2514.685547 -228.715912
-912.068481 2590.925781 -215.525909
-959.513489 2491.105469 -216.638901
-951.298462 2507.825684 -225.410904
-962.656494 2484.815918 -211.463913
-931.888489 2549.505859 -212.330902
-832.151489 2695.125488 -218.225906
-868.381470 2649.895508 -231.415909
-840.256470 2685.355469 -212.008911
-846.586487 2677.505859 -212.703903
-872.006470 2646.115723 -211.743912
-676.353455 2630.545898 -225.320908
-674.743469 2716.525879 -225.320908
-670.881470 2729.925781 -364.983917
-811.011475 2529.745605 -186.933899
-799.958496 2549.115723 -186.933899
-781.611450 2554.645508 -186.933899
-818.996460 2683.705566 -186.933899
-814.958496 2641.475586 -186.933899
-810.296448 2560.665527 -186.933899
-809.233459 2553.315918 -186.933899
-878.461487 2583.875488 -186.933899
-833.436462 2601.965820 -186.933899
-853.683472 2558.065918 -186.933899
-833.646484 2662.675781 -186.933899
-894.538452 2595.095703 -186.933899
-881.076477 2615.115723 -186.933899
-856.783447 2599.895508 -186.933899
-831.551453 2597.725586 -186.933899
-820.288452 2523.325684 -186.933899
-827.038452 2542.355469 -186.933899
-841.293457 2588.745605 -186.933899
-839.741455 2572.855469 -186.933899
-824.706482 2571.035645 -186.933899
-891.848450 1065.623779 -527.420898
-419.433502 2747.925781 -305.020935
-412.108490 2747.875488 -324.278931
-773.261475 2564.775879 -186.933899
-821.751465 2699.005859 -186.933899
-803.188477 2642.015625 -186.933899
-812.026489 2670.445801 -186.933899
-795.623474 2677.125488 -186.933899
-805.308472 2653.985840 -186.933899
-940.643494 2019.315674 -241.250900
-930.563477 2017.525757 -237.308899
-999.813477 2064.525879 -202.585907
-999.646484 2096.755859 -197.743912
-999.881470 2082.685547 -189.633911
-999.628479 2163.025879 -198.163910
-999.711487 2140.445801 -195.553909
-999.893494 2135.505859 -189.200912
-986.651489 2357.665527 -191.128906
-985.983459 2364.845703 -190.923904
-988.996460 2330.405762 -198.050903
-990.591492 2315.155762 -191.245911
-995.176453 2264.705566 -191.880905
-989.938477 2322.345703 -189.940903
-972.601501 2439.955566 -200.718903
-976.161499 2422.705566 -188.823914
-978.853455 2408.085938 -189.953903
-867.888489 2650.945801 -208.870911
-860.241455 2660.695801 -209.793900
-836.676453 2688.925781 -207.058899
-898.753479 2612.555664 -199.738907
-860.518494 2656.245605 -196.608902
-889.801453 2622.835938 -193.558899
-918.471497 2578.315918 -197.860901
-925.133484 2564.385742 -196.053909
-910.748474 2594.575684 -196.598907
-921.868469 2571.515625 -188.435913
-946.608459 2519.685547 -187.945908
-931.363464 2190.465820 -186.933899
-938.098450 2186.205566 -186.933899
-884.528503 2154.905762 -186.933899
-894.466492 2163.285645 -186.933899
-925.593445 2191.765625 -186.933899
-888.093445 2188.045898 -186.933899
-961.571472 2196.055664 -186.933899
-989.738464 2209.565918 -186.933899
-957.938477 2161.175781 -186.933899
-965.606445 2171.815674 -186.933899
-989.616455 2165.905762 -186.933899
-968.746460 2172.025879 -186.933899
-974.521484 2149.105713 -186.933899
-923.401489 2132.755859 -186.933899
-936.488464 2157.355713 -186.933899
-935.121460 2129.065674 -186.933899
-976.163452 2148.115723 -186.933899
-952.006470 2156.725586 -186.933899
-881.268494 2210.135742 -186.933899
-885.683472 2221.655762 -186.933899
-971.971497 2360.935547 -186.933899
-912.423462 2326.655762 -186.933899
-900.938477 2242.715820 -186.933899
-896.891479 2229.955566 -186.933899
-902.846497 2328.825684 -186.933899
-940.523499 2311.125488 -186.933899
-899.921448 2230.525879 -186.933899
-933.646484 2348.485840 -186.933899
-881.441467 2248.105469 -186.933899
-914.628479 2312.635742 -186.933899
-945.711487 2254.245605 -186.933899
-941.136475 2217.615723 -186.933899
-948.416443 2213.995605 -186.933899
-984.313477 2272.885742 -186.933899
-979.666443 2248.725586 -186.933899
-971.391479 2332.545898 -186.933899
-987.068481 2231.845703 -186.933899
-963.458496 2214.575684 -186.933899
-996.608459 2214.535645 -186.933899
-949.181458 2276.215820 -186.933899
-932.903503 2256.425781 -186.933899
-951.783447 2267.905762 -186.933899
-932.116455 2244.295898 -186.933899
-941.123474 2288.675781 -186.933899
-948.171448 2239.225586 -186.933899
-959.168457 2271.635742 -186.933899
-958.053467 2304.335938 -186.933899
-888.208496 2373.305664 -186.933899
-908.908447 2430.925781 -186.933899
-908.068481 2388.535645 -186.933899
-895.013489 2362.835938 -186.933899
-886.801453 2354.225586 -186.933899
-928.278503 2437.205566 -186.933899
-901.308472 2424.345703 -186.933899
-876.178467 2369.555664 -186.933899
-926.688477 2345.365723 -186.933899
-938.056458 2400.075684 -186.933899
-959.973450 2365.655762 -186.933899
-906.283447 2340.685547 -186.933899
-964.426453 2449.815918 -186.933899
-925.471497 2357.315918 -186.933899
-912.733459 2350.525879 -186.933899
-936.503479 2420.485840 -186.933899
-973.668457 2371.105469 -186.933899
-923.701477 2379.695801 -186.933899
-895.426453 2579.825684 -186.933899
-870.531494 2549.255859 -186.933899
-887.101501 2520.265625 -186.933899
-861.208496 2528.305664 -186.933899
-868.616455 2492.525879 -186.933899
-861.481445 2497.345703 -186.933899
-890.411499 2535.725586 -186.933899
-875.873474 2487.255859 -186.933899
-838.033447 2516.895508 -186.933899
-869.936462 2453.385742 -186.933899
-833.471497 2498.245605 -186.933899
-858.013489 2551.475586 -186.933899
-915.728455 2510.025879 -186.933899
-903.776489 2522.585938 -186.933899
-912.103455 2492.545898 -186.933899
-946.826477 2519.145508 -186.933899
-910.396484 2503.155762 -186.933899
-952.933472 2475.675781 -186.933899
-915.236450 2495.825684 -186.933899
-943.428467 2483.015625 -186.933899
-913.521484 2528.525879 -186.933899
-920.681458 2562.855469 -186.933899
-871.538452 2408.665527 -186.933899
-908.326477 2578.335938 -186.933899
-878.688477 2428.495605 -186.933899
-972.006470 1927.105713 -66.078812
-959.183472 1919.355713 -73.663918
-972.903503 1927.135742 -66.048912
-993.738464 1898.345703 -94.223915
-972.216492 1899.055664 -93.525917
-996.031494 1917.865723 -75.121414
-999.961487 1934.945679 -65.443916
-999.961487 1940.855713 -69.323814
-999.961487 1937.135742 -78.866318
-999.961487 1943.705688 -93.355911
-999.961487 1939.035767 -98.250916
-999.961487 1913.545654 -100.565910
-999.961487 1919.255737 -116.323921
-999.961487 1989.045654 -129.108902
-999.961487 1956.325684 -123.395912
-999.961487 1958.175659 -136.625900
-999.961487 1997.065674 -127.433907
-999.961487 2005.345703 -161.868912
-999.961487 2031.955688 -162.618912
-999.961487 1983.155762 -121.088921
-999.961487 2025.945679 -200.676910
-999.961487 2025.165649 -206.450912
-999.961487 1994.305664 -190.763901
-999.961487 1975.295654 -164.093903
-999.961487 1995.775757 -183.748901
-999.961487 1997.475708 -191.308899
-999.961487 2068.965820 -187.573914
-999.961487 1992.555664 -200.093903
-999.961487 1952.295654 -151.468903
-970.246460 2057.175781 -168.150909
-960.003479 2061.245605 -172.603912
-978.796448 2056.675781 -167.608902
-993.851501 2051.155762 -161.575912
-984.508484 2015.395752 -122.475914
-992.151489 2011.065674 -117.748909
-956.111450 2024.035767 -131.920914
-956.663452 2037.575684 -146.723907
-983.073486 1996.245728 -101.545914
-979.121460 2011.895752 -118.648918
-961.606445 2050.785645 -161.170914
-988.536499 1942.185669 -58.543816
-986.656494 1938.775757 -56.561317
-989.393494 1975.925659 -82.313812
-966.148499 1956.065674 -68.296310
-976.871460 1943.085693 -59.133911
-981.693481 1955.405762 -67.828812
-973.473450 1955.815674 -161.763901
-965.801453 1959.965698 -166.708908
-927.971497 1942.895752 -146.375900
-969.298462 1944.415649 -148.193909
-930.966492 1967.535767 -175.723907
-929.898499 1961.095703 -168.058899
-964.558472 1952.605713 -157.948914
-930.293457 1940.495728 -143.518906
-999.401489 1973.375732 -182.680908
-982.421448 1962.585693 -169.825912
-993.486450 1977.245728 -187.280899
-994.876465 1998.555664 -212.665909
-969.783447 1982.935669 -194.065903
-999.196472 1940.855713 -143.945908
-929.718445 2007.205688 -222.963913
-946.481445 2014.815674 -232.025909
-927.546448 2010.595703 -227.005905
-965.138489 1891.295654 -107.355911
-921.453491 1899.515747 -113.080917
-948.908447 1906.225708 -117.758919
-936.373474 1904.285767 -116.408913
-980.711487 1904.465698 -116.528908
-978.143494 1907.535767 -118.670921
-975.866455 1930.575684 -134.723907
-986.261475 1931.125732 -135.108902
-404.408508 -2450.244141 -277.998932
-384.561493 -2473.654297 -309.700928
-327.933502 -2320.234375 -505.880951
-335.158508 -2319.894531 -505.880951
-326.338501 -2478.044434 -494.658936
-336.883514 -2482.174316 -461.233917
-343.233490 -2474.204102 -433.808929
-351.341492 -2472.774414 -429.260925
-360.888489 -2474.574219 -411.430908
-369.281494 -2481.024414 -396.495911
-379.628510 -2477.224121 -343.103912
-384.193512 -2475.344238 -317.645935
-879.921448 -1999.124390 -456.635925
-867.761475 -2000.914185 -487.078918
-910.111450 -1999.764282 -467.493927
-910.866455 -2027.674194 -470.873932
-901.718445 -2057.464355 -484.510925
-907.583496 -2041.474243 -475.073914
-906.436462 -2048.304199 -475.640930
-917.466492 -2014.614380 -458.918915
-905.096497 -2093.414062 -466.868927
-894.486450 -2114.544434 -490.275909
-900.733459 -2115.524414 -473.993927
-912.248474 -2098.794434 -447.400909
-892.283447 -2140.854492 -479.203918
-902.138489 -2139.504395 -454.665924
-865.743469 -2185.994141 -477.730927
-879.421448 -2174.294434 -463.068909
-846.473450 -2214.534180 -476.983917
-852.878479 -2204.774414 -477.713928
-884.313477 -2167.734375 -462.050934
-861.911499 -2205.984375 -452.025909
-879.016479 -2178.284180 -457.038910
-833.703491 -2245.464355 -454.873932
-859.041443 -2208.334473 -455.305908
-882.986450 -2175.034180 -452.500916
-795.756470 -2283.524414 -446.138916
-773.663452 -2290.914062 -482.365936
-802.103455 -2263.114258 -489.463928
-800.203491 -2269.384277 -476.060913
-772.868469 -2298.974121 -460.698914
-777.433472 -2292.794434 -466.925934
-768.421448 -2299.024414 -472.225922
-803.938477 -2271.194336 -461.010925
-761.068481 -2309.984375 -445.748932
-594.021484 -2400.574219 -443.873932
-673.466492 -2354.204102 -472.660919
-715.321472 -2329.784180 -475.740936
-696.861450 -2341.324219 -470.768921
-733.473450 -2322.354492 -462.473907
-750.658447 -2315.024414 -451.288910
-747.776489 -2312.614258 -470.025909
-692.266479 -2344.444336 -468.403931
-756.343445 -2304.124512 -486.815918
-750.561462 -2311.204102 -469.245911
-665.658447 -2359.594238 -467.308929
-702.523499 -2340.574219 -457.295929
-607.593445 -2391.274414 -464.843933
-587.391479 -2401.504395 -472.498932
-585.033447 -2403.824219 -461.095917
-631.506470 -2378.204102 -466.195923
-565.716492 -2414.774414 -455.560913
-614.568481 -2386.224121 -478.673920
-567.468445 -2414.654297 -446.778931
-556.708496 -2416.704102 -484.013916
-538.971497 -2423.624512 -481.493927
-544.688477 -2426.154297 -450.353912
-501.246490 -2439.574219 -483.220917
-521.006470 -2437.124512 -451.295929
-502.663513 -2443.924316 -443.500916
-453.576508 -2454.274414 -466.810913
-466.466492 -2449.924316 -478.090912
-406.738495 -2465.404297 -474.878937
-457.876495 -2452.824219 -470.593933
-484.031494 -2446.654297 -465.725922
-458.511505 -2452.074219 -476.715912
-443.046509 -2456.974121 -466.560913
-380.713501 -2471.624512 -476.755920
-475.423492 -2450.054199 -447.095917
-382.598511 -2471.174316 -476.680908
-402.168518 -2466.794434 -466.793915
-473.838501 -2450.244141 -454.595917
-437.883514 -2458.724121 -453.980927
-411.118500 -2464.904297 -458.120911
-468.723511 -2451.654297 -446.110931
-326.456512 -2484.044434 -461.265930
-307.573517 -2486.524414 -470.283936
-294.016510 -2488.094238 -486.080933
-297.548492 -2489.304199 -446.985931
-281.943512 -2491.844238 -448.788910
-267.998505 -2493.424316 -460.300934
-247.598511 -2497.254395 -444.495911
-257.926514 -2494.844238 -464.720917
-251.226501 -2494.924316 -473.990936
-216.905502 -2499.124512 -464.543915
-215.599503 -2499.544434 -459.835907
-206.209503 -2499.074219 -481.308929
-204.190506 -2500.074219 -469.013916
-185.788498 -2502.954102 -444.755920
-137.125504 -2506.244141 -444.595917
-122.713501 -2504.294434 -489.473907
-193.990509 -2500.724121 -470.075928
-142.064499 -2504.204102 -471.023926
-165.544510 -2501.594238 -486.028931
-198.585510 -2501.594238 -452.235931
-95.947502 -2508.324219 -455.775909
-91.906303 -2508.454102 -457.873932
-130.074509 -2505.274414 -467.110931
-121.002502 -2506.094238 -463.835907
-63.553005 -2509.154297 -476.683929
-142.864502 -2505.374512 -452.335907
-59.548805 -2509.294434 -477.015930
-44.968502 -2509.224121 -485.140930
-15.645802 -2509.904297 -486.365936
-5.371632 -2512.724121 -447.128937
-1.691222 -2511.444336 -468.265930
-905.823486 -1999.004272 -454.483917
-918.411499 -2039.954224 -448.060913
-917.061462 -2060.344238 -444.078918
-914.526489 -2105.084473 -440.350922
-898.811462 -2161.014160 -436.400909
-885.231445 -2182.514160 -433.295929
-814.376465 -2268.114258 -442.688934
-762.521484 -2311.044434 -436.685913
-742.836487 -2322.214355 -434.093933
-607.888489 -2393.924316 -437.660919
-597.778503 -2399.674316 -433.985931
-560.346497 -2419.544434 -436.893921
-543.258484 -2432.024414 -432.478912
-514.776489 -2441.624512 -436.458923
-434.283508 -2461.224121 -438.040924
-382.518494 -2474.224121 -434.628937
-362.633514 -2479.124512 -434.605927
-377.446503 -2476.574219 -430.758911
-326.973511 -2472.744141 -432.225922
-314.321503 -2476.774414 -434.118927
-264.783508 -2484.594238 -436.848907
-289.668518 -2481.224121 -435.815918
-234.926498 -2496.194336 -442.268921
-227.336502 -2491.724121 -438.958923
-158.877502 -2499.424316 -440.380920
-167.743500 -2491.244141 -435.648926
-148.559509 -2494.074219 -436.593933
-85.185303 -2506.304199 -441.560913
-105.441505 -2502.344238 -439.948914
-165.275497 -2487.674316 -433.295929
-35.622803 -2510.244141 -442.590912
-27.589302 -2498.524414 -435.135925
-585.681458 -2356.774414 -316.475922
-599.898499 -2310.444336 -322.048920
-763.308472 -2285.034180 -318.278931
-586.781494 -2390.654297 -311.953918
-727.753479 -2294.034180 -319.960907
-689.421448 -2320.914062 -317.635925
-724.843445 -2294.554199 -320.150909
-675.616455 -2330.814453 -316.745911
-675.031494 -2353.594238 -311.318909
-773.756470 -2290.734375 -315.770935
-652.801453 -2347.404297 -315.218933
-685.771484 -2341.704102 -313.020935
-728.106445 -2328.634277 -311.583923
-648.148499 -2311.994141 -320.415924
-678.528503 -2278.984375 -323.783936
-658.558472 -2327.814453 -318.065918
-637.571472 -2295.684082 -322.835907
-603.046448 -2375.754395 -313.510925
-703.753479 -2289.874512 -321.633911
-675.783447 -2317.394531 -318.903931
-607.441467 -2301.454102 -322.975922
-616.651489 -2340.404297 -317.673920
-643.738464 -2345.474121 -316.220917
-637.656494 -2290.194336 -323.540924
-711.168457 -2273.454102 -323.535919
-613.221497 -2330.874512 -319.005920
-616.708496 -2318.034180 -320.563934
-600.346497 -2376.744141 -313.460907
-774.396484 -2314.124512 -310.910919
-638.816467 -2379.424316 -311.093933
-602.281494 -2387.094238 -311.213928
-790.431458 1065.743652 -551.915894
-786.668457 1065.652710 -533.260864
-794.843445 1065.810791 -565.388916
-794.273499 1065.533691 -508.935944
-808.701477 1065.620728 -526.873901
-810.383484 1065.575684 -517.618896
-826.451477 1065.722656 -547.750916
-840.238464 1065.680664 -539.035889
-865.701477 1065.760742 -555.303894
-855.446472 1065.748779 -552.865906
-862.061462 1065.678711 -538.220886
-778.648499 2695.475586 -186.933899
-775.631470 2638.275879 -186.933899
75.896996 -2420.024414 15.648658
47.264996 -2404.124512 15.546118
22.050299 -2421.404297 25.133688
118.034500 -2416.644531 25.151188
79.445999 -2415.224121 25.198689
7.264838 -2399.944336 25.288588
1.087328 -2405.174316 25.278687
121.178497 -2404.474121 25.273588
69.398697 -2409.824219 25.268688
63.840500 -2434.274414 -14.396412
40.194195 -2415.494141 -23.823812
-0.824768 -2419.574219 -23.818911
111.273499 -2426.524414 -23.781412
64.525200 -2432.544434 -23.726313
111.747498 -2418.594238 -23.816412
86.613495 -2421.774414 -23.813913
35.747196 -2413.524414 -14.083813
8.867788 -2422.674316 -14.098812
48.983696 -2418.344238 -14.091412
15.646898 -2447.704102 -51.051315
27.365498 -2446.654297 -57.981415
107.906494 -2446.124512 -56.976418
109.140495 -2443.524414 -57.981415
101.936493 -2440.424316 -48.786308
17.005198 -2432.974121 -58.261414
88.326996 -2436.374512 -58.223915
94.102493 -2429.724121 -58.261414
71.102997 -2431.574219 -58.261414
37.059696 -2438.704102 -48.636314
38.781998 -2425.994141 -48.538811
17.474699 -2429.204102 -48.543816
118.186493 -2421.594238 -48.538811
79.011497 -2430.404297 -48.548912
57.161697 -2456.704102 -93.140915
36.239697 -2446.274414 -97.613914
6.943118 -2451.574219 -97.543915
34.811695 -2442.904297 -97.628914
2.776968 -2435.844238 -97.640915
61.146496 -2444.544434 -97.623917
75.888199 -2432.994141 -97.640915
72.682693 -2442.404297 -97.628914
107.128494 -2439.704102 -87.928917
49.079494 -2444.074219 -87.953911
83.269997 -2428.024414 -87.900917
106.686493 -2361.074219 163.986099
45.457996 -2363.924316 163.451096
55.082195 -2362.424316 158.623093
76.663193 -2358.974121 167.559097
35.257496 -2356.574219 158.344101
23.655998 -2358.274414 158.366089
44.230995 -2340.244141 158.264099
51.671497 -2338.574219 158.261093
54.513496 -2343.094238 158.269089
6.235368 -2351.544434 167.941101
67.425194 -2355.654297 167.861099
112.125496 -2337.874512 167.996094
63.923500 -2345.904297 167.986099
431.326508 -2343.744141 126.866089
481.578491 -2334.864258 125.551086
446.831482 -2340.074219 124.286087
279.066498 -2365.024414 129.501083
133.677490 -2379.294434 126.641083
268.481506 -2367.404297 125.204086
146.102493 -2374.724121 123.979088
262.886505 -2365.244141 124.111084
388.821503 -2346.044434 133.111084
180.541504 -2370.424316 133.149094
189.502502 -2368.654297 133.264084
435.718506 -2328.994141 123.829086
484.528503 -2318.784180 123.829086
299.208496 -2344.924316 123.824089
399.663483 -2329.184082 123.821083
351.173492 -2331.674316 123.816086
298.411499 -2353.794434 123.881088
390.921509 -2343.624512 123.921089
196.992493 -2353.044434 123.821083
252.456497 -2346.174316 123.819084
273.973511 -2349.224121 123.824089
193.314499 -2366.994141 123.914085
186.487503 -2363.274414 123.856087
422.251495 -2322.804199 133.544083
468.976501 -2325.804199 133.456085
402.451508 -2330.474121 133.539093
376.778503 -2324.394531 133.551086
372.028503 -2323.514160 133.554092
244.950500 -2350.374512 133.539093
164.983490 -2351.124512 133.549088
276.068481 -2344.954102 133.544083
203.866501 -2348.094238 133.549088
372.591492 -2344.504395 133.414093
408.131500 -2332.914062 133.506088
146.494492 -2367.824219 133.446091
158.756500 -2368.154297 133.426086
178.545502 -2361.404297 133.499084
408.368500 -2365.294434 87.068687
423.208496 -2362.174316 88.668587
456.121490 -2357.094238 86.428589
286.971497 -2382.494141 86.576187
151.733490 -2394.844238 88.633583
286.711487 -2382.524414 86.066185
299.243500 -2377.544434 84.663589
187.228500 -2389.324219 84.688683
246.168503 -2382.574219 93.738686
422.041504 -2357.824219 84.571182
420.648499 -2336.834473 84.443687
283.466492 -2358.544434 84.443687
281.923492 -2366.374512 84.456184
381.383484 -2345.654297 84.446182
323.391510 -2354.374512 84.446182
301.018494 -2374.344238 84.556084
369.931488 -2364.094238 84.548584
158.160492 -2376.454102 84.453484
141.940491 -2383.054199 84.461082
265.213501 -2360.344238 84.443687
127.385498 -2391.044434 84.548584
248.940491 -2378.794434 84.533585
431.763489 -2336.024414 94.178589
451.138489 -2350.244141 94.033585
351.448486 -2356.654297 94.166084
293.986511 -2353.704102 94.183586
136.656494 -2377.544434 94.171188
206.826492 -2372.744141 94.168587
260.318481 -2360.654297 94.178589
294.111511 -2374.424316 94.026085
367.996490 -2355.474121 94.151184
208.894501 -2383.454102 94.023582
154.124496 -2385.394531 94.068687
189.367493 -2376.154297 94.158585
208.001495 -2375.994141 94.136185
296.196503 -2392.154297 50.341187
218.371490 -2402.344238 50.521088
141.869492 -2404.524414 59.378685
329.218506 -2387.324219 58.743690
419.573486 -2361.074219 50.008591
286.761505 -2376.774414 50.003685
316.576508 -2365.294434 49.993591
359.058502 -2362.794434 49.998688
340.026489 -2382.494141 50.111092
378.293488 -2378.344238 50.126190
180.240494 -2390.124512 50.006187
260.923492 -2376.424316 49.998688
225.627502 -2377.574219 49.996086
177.745499 -2399.774414 50.098587
257.343506 -2386.504395 50.016190
176.388489 -2395.074219 50.033691
436.803497 -2351.674316 59.726189
404.946503 -2352.274414 59.731087
361.516510 -2367.724121 59.718590
382.928497 -2354.874512 59.733589
357.008484 -2358.324219 59.733589
173.049500 -2387.554199 59.721085
194.802490 -2377.474121 59.733589
258.248505 -2379.204102 59.723686
334.336487 -2381.574219 59.583687
309.403503 -2377.994141 59.686089
180.616501 -2397.424316 59.606186
155.934494 -2393.994141 59.688690
242.123489 -2384.454102 59.716187
134.337494 -2422.124512 22.508688
-134.592499 -2435.574219 -356.926910
-214.949509 -2425.224121 -357.830933
-261.736511 -2422.004395 -357.728912
250.826492 -2411.574219 15.913618
278.208496 -2409.754395 16.138647
233.270493 -2413.594238 15.973668
429.461487 -2382.594238 24.931087
392.793488 -2392.274414 23.181187
267.286499 -2405.524414 25.003689
297.628510 -2401.594238 24.991089
155.160492 -2418.454102 24.713589
216.647491 -2411.474121 24.913588
375.646484 -2390.704102 15.658668
423.273499 -2370.044434 15.556128
378.488495 -2377.824219 15.556128
348.263489 -2385.094238 15.558638
294.356506 -2381.904297 15.546118
273.523499 -2403.294434 15.643598
361.286499 -2388.494141 15.603678
220.201492 -2401.774414 15.561138
230.956497 -2394.024414 15.551128
125.682495 -2412.224121 15.573587
207.308502 -2408.424316 15.621068
406.288483 -2373.594238 25.271187
390.271484 -2365.004395 25.288588
379.303497 -2385.654297 25.181087
298.853485 -2382.574219 25.281189
318.761505 -2380.344238 25.281189
356.073486 -2375.404297 25.278687
203.929489 -2401.044434 25.268688
220.210495 -2387.204102 25.288588
196.086502 -2393.154297 25.281189
277.396484 -2401.624512 25.148588
365.586487 -2389.224121 25.158588
211.539490 -2408.204102 25.156088
250.556503 -2405.094238 25.151188
414.473511 -2401.954102 -21.708914
-339.818512 -2412.094238 -347.398926
376.098511 -2405.624512 -23.553812
335.933502 -2413.444336 -18.828913
246.722504 -2425.524414 -20.571314
347.936493 -2411.974121 -19.111313
174.854492 -2432.174316 -20.976313
159.527496 -2433.674316 -22.493811
286.491486 -2419.544434 -23.358912
164.035492 -2431.624512 -23.421312
326.376495 -2411.424316 -14.563911
230.889496 -2420.824219 -14.246311
138.318497 -2433.694336 -16.103811
185.848495 -2428.724121 -14.771412
398.913483 -2397.924316 -23.718813
372.456482 -2382.994141 -23.826410
375.568481 -2391.724121 -23.811312
291.806488 -2405.044434 -23.808813
292.733490 -2403.574219 -23.811312
292.693481 -2395.674316 -23.823812
322.891510 -2410.654297 -23.701410
346.313507 -2406.344238 -23.716311
185.202499 -2414.244141 -23.813913
123.795494 -2414.094238 -23.821413
221.260498 -2412.024414 -23.811312
196.794495 -2405.574219 -23.823812
141.238495 -2431.344238 -23.681311
212.555496 -2416.754395 -23.796312
402.638489 -2382.724121 -14.093912
381.503510 -2379.344238 -14.083813
334.393494 -2396.794434 -14.098812
356.886505 -2383.624512 -14.083813
147.336502 -2417.994141 -14.101412
208.361496 -2407.704102 -14.093912
301.016510 -2411.024414 -14.228912
324.583496 -2405.294434 -14.188911
148.992493 -2423.944336 -14.183912
210.857498 -2414.474121 -14.123913
261.833496 -2430.704102 -52.226311
295.616486 -2425.974121 -50.833916
178.238495 -2439.704102 -54.156410
241.651489 -2431.344238 -58.053818
339.666504 -2421.324219 -57.751411
225.263489 -2436.224121 -57.678818
401.368500 -2409.174316 -49.173813
231.703491 -2430.974121 -48.931412
324.756500 -2418.594238 -48.868813
157.143494 -2436.724121 -48.856316
-173.940506 -2429.254395 -347.838928
-88.318504 -2434.724121 -347.940918
-358.371490 -2405.424316 -357.023926
-323.276489 -2410.204102 -357.253937
-314.738495 -2392.504395 -354.570923
-240.077499 -2402.024414 -354.990936
-278.723511 -2390.194336 -353.720917
-276.291504 -2414.794434 -357.313934
-283.311493 -2411.774414 -356.980927
-130.802505 -2418.744141 -356.448914
-187.048508 -2399.044434 -353.908936
-114.764503 -2422.194336 -356.815918
-187.572510 -2423.274414 -357.500916
-351.028503 -2387.744141 -343.405914
-346.728516 -2383.924316 -342.745911
-312.798492 -2413.744141 -347.120911
-361.818512 -2398.494141 -345.278931
-227.458496 -2420.144531 -346.845917
-286.576508 -2409.094238 -345.888916
-248.316498 -2400.694336 -343.965912
-206.928497 -2400.794434 -343.390930
-276.441498 -2396.344238 -343.685913
-157.084503 -2423.304199 -346.563934
-192.463501 -2421.904297 -346.673920
-158.784500 -2408.344238 -344.153931
-172.249496 -2402.794434 -343.400909
-206.502502 -2407.544434 -344.443909
-178.743500 -2405.894531 -343.940918
-78.606003 -2409.724121 -354.740936
390.173492 -2408.924316 -58.146416
249.706497 -2411.254395 -58.268814
279.188507 -2405.344238 -58.271416
260.136505 -2422.874512 -58.203911
311.266510 -2417.924316 -58.181313
121.477493 -2425.944336 -58.266312
201.260498 -2424.454102 -58.256317
218.701492 -2421.544434 -58.258911
228.642502 -2432.194336 -58.128815
387.828491 -2392.154297 -48.541313
382.698486 -2407.294434 -48.676414
374.246490 -2401.624512 -48.571411
274.311493 -2410.224121 -48.543816
243.982498 -2416.004395 -48.546410
337.808502 -2403.824219 -48.546410
315.978485 -2398.474121 -48.533913
169.758499 -2417.874512 -48.538811
222.287491 -2412.274414 -48.538811
180.553497 -2412.824219 -48.533913
308.443481 -2416.244141 -48.648811
284.883484 -2412.724121 -48.551315
201.370499 -2431.494141 -48.691414
155.620499 -2428.154297 -48.581413
366.331482 -2426.374512 -94.583916
138.552490 -2452.424316 -94.475914
197.978500 -2447.194336 -93.735916
117.825493 -2451.044434 -88.463913
174.875504 -2443.954102 -88.181915
329.541504 -2430.024414 -89.155914
-43.932503 -2429.144531 -357.505920
-103.045502 -2425.574219 -357.200928
-14.848902 -2417.824219 -355.798920
-31.195501 -2427.404297 -357.238922
-71.981003 -2419.424316 -345.278931
-67.762505 -2410.994141 -343.940918
-15.069302 -2421.704102 -345.473907
-47.087803 -2428.844238 -346.725922
-61.406502 -2425.074219 -346.133911
-4.220462 -2432.494141 -357.928925
-319.921509 -2411.974121 -385.800934
366.981506 -2407.874512 -97.633911
253.038498 -2422.274414 -97.636917
330.786499 -2407.074219 -97.643913
226.400497 -2440.544434 -97.510918
294.581482 -2426.124512 -97.590912
126.339493 -2434.874512 -97.633911
198.971497 -2429.974121 -97.633911
190.518494 -2425.674316 -97.640915
162.216492 -2442.124512 -97.566917
220.700500 -2433.274414 -97.618912
369.538483 -2399.374512 -87.903915
364.036499 -2416.874512 -88.013916
334.978485 -2418.524414 -87.968910
264.153503 -2422.844238 -87.918915
278.018494 -2421.374512 -87.918915
305.243500 -2408.624512 -87.903915
131.527496 -2430.194336 -87.908913
194.280502 -2423.654297 -87.905914
188.787491 -2423.094238 -87.905914
270.718506 -2424.524414 -87.935913
160.444504 -2442.294434 -88.033913
137.703491 -2438.344238 -87.943916
469.268494 -2317.704102 162.891098
480.501495 -2314.514160 158.646088
407.136505 -2328.084473 163.878098
300.188507 -2343.954102 162.116089
392.248505 -2331.114258 161.149094
228.563492 -2352.154297 159.706100
287.251495 -2344.044434 158.596100
412.951508 -2327.074219 158.718094
158.148499 -2356.244141 158.599091
147.422501 -2359.324219 158.846100
395.343506 -2327.324219 167.436096
267.308502 -2345.594238 167.374100
182.335495 -2354.374512 166.126099
461.376495 -2307.634277 158.301086
291.713501 -2322.714355 158.266098
360.136505 -2317.374512 158.271088
418.633484 -2305.114258 158.269089
414.363495 -2303.504395 158.264099
288.151489 -2342.244141 158.406097
402.208496 -2323.754395 158.378098
138.685501 -2343.674316 158.274094
210.403503 -2339.904297 158.279099
271.403503 -2329.984375 158.274094
238.154495 -2330.824219 158.269089
188.975494 -2348.004395 158.356094
195.820496 -2342.574219 158.294098
468.353485 -2293.754395 167.996094
438.016510 -2299.854492 167.996094
-200.377502 -2425.544434 -388.210907
-291.343506 -2410.424316 -390.575928
-150.774506 -2424.774414 -391.095917
-87.028503 -2433.974121 -387.080933
-48.616005 -2434.374512 -391.245911
-89.782707 -2428.654297 -391.280914
472.426483 -2303.544434 167.944092
454.606506 -2304.514160 167.976089
490.926483 -2306.874512 167.848099
331.768494 -2317.494141 167.994095
299.083496 -2326.884277 167.986099
391.753510 -2307.974121 167.994095
366.588501 -2308.144531 167.998093
168.153503 -2339.474121 167.986099
266.426483 -2331.304199 167.984100
199.380493 -2325.354492 168.004089
395.241486 -2321.954102 167.868088
285.168488 -2337.524414 167.871094
298.481506 -2328.074219 167.981094
194.716492 -2343.824219 167.906097
259.456482 -2339.404297 167.883087
-315.143494 -2410.454102 -380.903931
-305.728516 -2414.004395 -381.770935
-166.437500 -2424.454102 -380.900909
-190.900497 -2426.954102 -383.510925
-32.815502 -2433.374512 -381.673920
-327.408508 -2379.594238 -386.743927
-329.903503 -2387.224121 -387.948914
-230.388504 -2397.254395 -387.998932
-224.991501 -2400.874512 -388.478912
-267.626495 -2389.794434 -387.380920
-302.198517 -2387.974121 -387.578918
-230.646500 -2415.094238 -390.590912
-299.946503 -2399.474121 -389.265930
-130.459503 -2409.574219 -388.910919
-196.374496 -2402.744141 -388.423920
-112.972504 -2423.044434 -390.718933
-204.656509 -2409.794434 -389.543915
-345.918518 -2386.544434 -377.203918
-303.623505 -2388.374512 -376.720917
-336.608490 -2402.374512 -379.653931
-241.355499 -2406.704102 -378.715912
-298.441498 -2406.274414 -379.568909
-255.438507 -2391.024414 -376.448914
-282.526489 -2396.174316 -377.638916
-138.169510 -2418.174316 -379.460907
-190.362503 -2420.624512 -380.408936
-120.995506 -2405.794434 -377.318909
-140.653503 -2411.074219 -378.310913
-62.949802 -2403.424316 -387.588928
-45.938805 -2423.274414 -390.485931
-29.743301 -2428.904297 -391.243927
-76.217003 -2403.954102 -376.765930
-25.354502 -2426.574219 -380.248932
-354.321503 -2418.074219 -322.363922
-206.067505 -2436.174316 -318.963928
-164.013504 -2438.844238 -322.693909
-229.119507 -2428.374512 -324.708923
-288.428497 -2424.094238 -324.570923
-167.585510 -2433.024414 -324.898926
-51.908504 -2442.794434 -325.338928
-371.203491 -2418.124512 -316.593933
-281.003510 -2423.844238 -314.510925
-116.238503 -2442.204102 -315.940918
-242.901505 -2432.094238 -317.030914
-317.236511 -2413.474121 -323.888916
-312.411499 -2398.874512 -321.673920
-370.751495 -2406.024414 -323.435913
-368.353516 -2396.974121 -322.113922
-251.396500 -2405.124512 -321.748932
-283.153503 -2396.494141 -320.868927
-209.546509 -2419.504395 -323.350922
-220.591507 -2417.904297 -323.263916
-127.710503 -2419.374512 -322.648926
-147.106506 -2408.524414 -321.145935
-184.256500 -2405.844238 -321.048920
-140.076508 -2430.024414 -324.300934
-161.915497 -2426.974121 -324.035919
-340.381500 -2412.654297 -313.563934
-332.376495 -2408.154297 -312.613922
-270.863495 -2413.624512 -312.443909
-280.951508 -2416.824219 -313.163910
-206.860504 -2419.374512 -312.410919
-242.065506 -2413.254395 -311.953918
-140.420502 -2431.474121 -313.845917
-150.691498 -2434.274414 -314.433929
-150.526505 -2414.624512 -311.173920
-118.856506 -2425.404297 -312.590912
-180.763504 -2413.744141 -311.298920
-60.229004 -2437.324219 -324.908936
-37.803303 -2427.044434 -323.373932
-38.696304 -2430.824219 -323.933929
-84.167801 -2427.624512 -312.728912
-59.245003 -2417.904297 -311.095917
-83.675507 -2435.044434 -314.003937
-17.291002 -2437.874512 -314.250916
-37.305805 -2434.824219 -313.755920
-7.217532 -2428.704102 -413.900909
-6.839452 -2439.154297 -322.043915
-3.739702 -2439.904297 -366.850922
-7.061702 -2436.524414 -359.515930
-7.421752 -2414.344238 -288.398926
-7.417132 -2417.874512 -310.958923
-7.429102 -2409.844238 -295.240936
-7.422432 -2414.424316 -331.200928
-7.310862 -2431.024414 -327.783936
-7.263252 -2431.004395 -384.705933
-7.426432 -2406.924316 -393.645935
-7.389452 -2420.344238 -398.673920
-7.416162 -2410.454102 -416.343933
-64.078804 -2439.324219 -281.398926
-58.279305 -2440.874512 -313.400909
-60.542503 -2440.824219 -312.293915
-64.562004 -2434.324219 -372.033936
-52.381302 -2430.094238 -414.770935
-52.567802 -2438.544434 -299.408936
-54.618305 -2440.624512 -353.690918
-52.245003 -2434.904297 -369.248932
-64.865005 -2408.624512 -285.148926
-64.849007 -2418.724121 -287.335907
-64.847305 -2420.404297 -315.420929
-64.842300 -2423.174316 -350.453918
-64.863304 -2410.074219 -329.000916
-64.716507 -2432.294434 -339.400909
-64.795006 -2427.224121 -326.243927
-51.898304 -2409.504395 -280.175934
-51.944305 -2425.474121 -275.678925
-51.901505 -2411.654297 -314.770935
-52.007004 -2429.424316 -320.033936
-51.923306 -2424.024414 -328.445923
-64.853004 -2415.074219 -363.948914
-64.761002 -2428.204102 -363.015930
-64.864304 -2405.704102 -385.728912
-64.746307 -2424.344238 -404.290924
-51.901005 -2409.994141 -360.990936
-52.068802 -2429.094238 -390.090912
-51.905003 -2405.524414 -418.028931
-283.506500 -2425.404297 -341.720917
-287.168518 -2424.974121 -345.078918
-285.471497 -2423.974121 -365.840912
-289.421509 -2420.124512 -375.053925
-277.303497 -2421.224121 -306.393921
-277.781494 -2424.674316 -339.303925
-278.518494 -2420.174316 -401.210907
-289.958496 -2401.674316 -274.898926
-289.963501 -2398.094238 -338.773926
-289.963501 -2398.004395 -318.398926
-277.201508 -2419.574219 -311.500916
-277.013489 -2400.074219 -309.588928
-289.968506 -2393.394531 -363.465912
-289.903503 -2408.374512 -379.773926
-289.868500 -2412.594238 -358.500916
-289.973511 -2387.974121 -392.130920
-277.026489 -2403.404297 -383.550934
-277.188507 -2414.374512 -394.373932
-289.871490 -2404.844238 -419.728912
-226.905502 -2432.574219 -315.435913
-231.897507 -2430.174316 -337.203918
-229.130508 -2431.194336 -364.083923
-219.853500 -2426.274414 -372.040924
-221.131500 -2425.944336 -409.868927
-220.443497 -2427.344238 -398.945923
-232.524506 -2408.794434 -299.420929
-219.692505 -2421.744141 -296.610931
-219.583496 -2408.654297 -296.948914
-232.518509 -2409.624512 -383.658936
-232.527496 -2399.924316 -405.365936
-232.536499 -2396.494141 -392.868927
-219.589508 -2410.654297 -364.948914
-219.591507 -2408.094238 -400.743927
-219.574509 -2399.094238 -393.508911
-232.472504 -2411.294434 -408.805908
-219.585510 -2402.024414 -416.340912
-219.571503 -2395.444336 -406.003937
-174.726501 -2427.404297 -422.345917
-168.195511 -2436.374512 -306.410919
-172.662506 -2436.294434 -313.398926
-169.211502 -2433.344238 -386.135925
-171.690506 -2431.924316 -395.180908
-164.374496 -2432.724121 -328.455933
-165.785507 -2436.154297 -348.815918
-164.319504 -2431.844238 -355.710907
-165.356506 -2434.974121 -365.275909
-176.788498 -2428.324219 -284.218933
-176.953506 -2405.344238 -281.660919
51.588696 -2436.204102 -40.363815
65.757500 -2366.624512 150.834091
65.868195 -2350.994141 156.674088
65.869194 -2361.924316 136.454086
65.879700 -2366.754395 115.706085
51.563198 -2353.794434 136.736084
51.574997 -2374.174316 108.628685
51.768997 -2380.154297 133.844086
51.740498 -2371.324219 147.014099
65.872696 -2408.404297 26.156189
65.869698 -2417.324219 4.661108
65.700996 -2415.754395 52.198586
65.866997 -2391.844238 76.391190
65.863197 -2405.654297 46.746185
51.583694 -2425.494141 -12.211412
51.758995 -2429.574219 14.163618
51.578995 -2386.954102 85.888687
51.581696 -2404.224121 45.711189
51.668697 -2407.844238 60.661087
406.426483 -2390.774414 -7.066412
412.011505 -2370.474121 41.268688
400.613495 -2361.444336 68.491089
413.803497 -2370.974121 11.523661
413.911499 -2357.244141 -0.923812
413.868500 -2345.654297 63.873688
413.753510 -2350.944336 67.498589
413.901489 -2336.984375 64.031189
399.598511 -2358.674316 4.998578
399.618500 -2339.004395 80.143585
351.358490 -2417.974121 -58.446411
356.098511 -2415.544434 -57.031311
347.976501 -2351.474121 125.941086
345.978485 -2391.474121 32.848686
350.893494 -2383.474121 50.401085
353.721497 -2390.004395 31.903688
356.683502 -2371.704102 64.443687
356.576508 -2364.304199 85.163589
356.421509 -2401.674316 -14.591412
343.493500 -2346.474121 134.879089
