ply
format ascii 1.0
element vertex 1367
property float x
property float y
property float z
end_header
2.251824 1746.643677 -417.253601
13.692554 1759.453613 -417.258606
16.987354 1820.033691 -417.281616
5.240004 1723.493652 -417.243591
28.008354 1746.013672 -417.253601
5.283924 1784.703613 -417.266602
13.696754 1856.933594 -417.293610
1.541264 1823.753662 -417.281616
-6.230396 1842.693604 -417.288605
12.266753 1857.513672 -417.293610
9.639254 1833.833618 -417.286591
9.101303 1823.843628 -417.281616
4.703504 1808.723633 -417.276611
31.603354 1728.483643 -417.246613
30.961355 1836.573608 -417.286591
20.226454 1706.713623 -417.226593
14.515154 1705.373657 -396.673615
12.051953 1705.433594 -384.896606
-13.208146 1705.383667 -397.486603
-21.978346 1705.483643 -379.228607
20.252655 1826.283691 -372.991608
11.328753 1836.823608 -372.993591
30.107855 1816.583618 -372.986603
-4.368746 1852.273682 -373.001617
20.126654 1861.333618 -373.003601
2.459604 1831.543579 -372.993591
-10.201047 1864.493652 -373.006592
-14.139446 1720.133667 -372.951599
-10.993346 1808.683594 -372.983612
-2.715876 1768.503662 -372.968597
-17.037046 1811.793579 -372.986603
17.181555 1749.673584 -372.963593
25.900154 1717.593628 -372.951599
-18.709246 1791.433594 -372.978607
-12.776446 1728.063599 -372.953613
848.376160 -54.765015 229.516388
840.606140 -54.780514 265.981384
854.873169 -248.979416 232.833374
860.226135 -224.733414 226.946381
859.171143 -0.965012 221.188385
850.263123 -39.271214 222.108398
835.383118 -12.436714 221.463379
843.613159 9.182587 257.653381
846.163147 9.182587 231.693390
866.081116 -36.759212 270.531403
867.206116 -36.048214 270.581390
853.333130 -7.421013 272.558380
835.063171 -3.710716 272.813385
25.976854 1870.373657 -373.016602
871.056152 -13.847710 225.011383
828.423157 -23.923210 285.716400
824.918152 -20.032211 212.398376
834.756165 -21.583710 217.126373
834.756165 -26.229515 215.456390
834.756165 -47.971214 274.176392
865.356140 -210.819412 238.613373
862.753113 -222.001404 240.543396
834.451111 -203.788422 212.398376
826.141113 -227.751404 212.398376
834.756165 -237.728409 258.373383
834.756165 -213.818420 266.306396
827.421143 5.729584 275.698395
830.971130 -252.891418 264.608398
851.793152 731.315552 298.116394
848.488159 732.853577 269.023376
848.933167 749.490601 275.126373
854.263123 751.860596 276.131378
840.788147 693.973572 273.748383
844.906128 751.020569 298.131378
841.388123 702.150574 295.421387
7.391774 1872.843628 -367.391602
28.780354 1872.833618 -360.513611
31.250654 1869.343628 -358.248596
22.311554 1797.383667 -326.571594
5.245354 1799.353638 -322.886597
30.885155 1788.233643 -343.753601
25.564354 1806.083618 -310.203613
41.341354 1798.473633 -324.501617
-32.030846 1807.753662 -307.143616
-32.035847 1788.333618 -343.648590
-34.297146 1783.233643 -353.238617
-28.005846 1794.513672 -332.018616
872.113159 894.640564 297.181396
834.136169 787.340576 283.558380
834.136169 757.900574 275.991394
867.706116 837.435547 274.656403
865.006165 787.310547 276.743378
861.923157 764.713562 273.461395
834.136169 820.545593 295.383392
834.136169 823.920593 297.153381
834.136169 775.158569 289.343384
867.906128 842.598572 293.518402
866.856140 815.338562 288.296387
861.076111 758.493591 293.041382
864.353149 757.485596 268.376373
868.608154 838.670593 305.908386
872.078125 829.718567 275.041382
871.421143 812.645569 278.991394
872.238159 833.918579 298.938385
870.616150 794.218567 291.853394
866.578125 764.608582 272.456390
834.016113 768.303589 317.753387
830.731140 809.973572 255.943390
834.136169 802.530579 265.541382
834.136169 814.198547 264.641388
834.136169 779.110596 315.801392
834.136169 790.378601 306.921387
834.136169 827.205566 311.266388
834.136169 871.743591 272.768402
834.136169 866.728577 282.491394
867.913147 861.845581 278.101379
867.913147 847.468567 271.741394
834.136169 857.730591 287.968384
834.136169 853.875549 301.801392
867.913147 878.148560 294.251373
867.913147 859.663574 290.953400
872.483154 859.258545 265.886383
872.581116 869.453552 272.963379
872.581116 866.890564 276.501373
872.581116 862.563599 292.341400
827.441162 854.508545 321.533386
834.136169 856.178589 262.561401
834.136169 871.460571 261.576385
834.136169 882.630554 270.798401
834.136169 882.740601 297.853394
827.773132 883.923584 255.943390
837.568115 884.960571 275.401398
866.136169 884.990601 282.546387
866.743164 884.993591 290.821381
851.348145 700.840576 272.953400
862.013123 897.230591 265.023376
841.303162 937.803528 264.048401
863.596130 886.893555 265.271393
846.011169 908.913574 264.743378
851.156128 944.413513 304.341400
846.361145 944.413513 276.426392
847.093140 899.488586 309.853394
860.576111 891.778564 309.321381
840.601135 934.853577 312.296387
858.158142 730.035583 297.913391
47.276653 1808.013672 -306.521606
865.443115 942.903625 309.173401
834.136169 922.513550 313.476379
834.136169 910.873596 322.343384
830.661133 718.850586 315.583374
828.338135 732.378601 316.178375
834.136169 712.108582 297.236389
834.136169 745.440552 310.321381
830.058167 688.118591 286.701385
826.866150 699.270569 262.886383
-521.751831 1396.853638 1031.886353
-36.100849 1789.053589 -342.298615
-862.521851 924.713562 311.596375
-856.401855 919.103577 311.208374
-843.246887 924.883606 311.608398
-851.708862 932.363586 312.123383
-860.783875 738.608582 298.603394
-520.996887 208.058578 994.733337
-517.608887 269.200562 1008.643372
-23.230345 1822.833618 -372.988617
-24.721746 1816.943604 -372.988617
-872.213867 902.053589 307.836395
-522.523865 1495.323608 984.381348
-522.523865 1414.013672 953.331360
-522.523865 1415.063599 961.726379
-522.523865 1420.463623 964.276367
-522.523865 1367.413574 955.068359
-522.523865 1410.633667 956.498352
-522.523865 1501.223633 970.671387
-522.523865 1412.693604 989.466370
-522.523865 1326.113647 1000.983337
-522.523865 1359.203613 1011.776367
-522.523865 1422.293579 984.476379
-522.523865 1359.873657 988.918335
-522.523865 1364.293579 970.223389
-522.523865 1413.433594 1001.688354
-522.523865 1367.203613 1013.728394
-522.523865 1375.133667 975.846375
-522.523865 1369.243652 964.561340
-522.523865 1343.443604 994.053345
-502.073853 1331.023682 972.706360
-498.638855 1317.453613 998.771362
-518.298889 1334.203613 966.591370
-497.916870 1369.493652 954.606384
-497.916870 1459.713623 977.506348
-497.916870 1495.203613 966.363342
-497.916870 1467.543579 990.078369
-497.916870 1464.773682 978.181335
-497.916870 1479.243652 953.916382
-497.916870 1392.003662 988.243347
-497.916870 1355.333618 1002.508362
-497.916870 1375.283691 982.871338
-497.916870 1330.383667 987.288391
-497.916870 1354.753662 1007.041382
-497.916870 1353.623657 974.911377
-497.916870 1462.543579 1002.283386
-497.916870 1356.963623 976.148376
-497.916870 1331.493652 975.943359
-497.916870 1321.493652 997.568359
-522.523865 1425.443604 1007.531372
-522.523865 1345.153687 1027.738403
-522.523865 1463.173584 1003.753357
-522.523865 1388.243652 1030.648438
-522.523865 1384.083618 1031.253418
-522.523865 1452.623657 1012.431335
-831.356873 885.950562 322.913391
-497.916870 1411.683594 1013.513367
-497.916870 1343.003662 1032.006348
-497.916870 1384.443604 1021.126343
-497.916870 1429.893677 1014.911377
-497.916870 1398.513672 1022.583374
-497.916870 1431.783691 1019.348389
-829.146851 914.463562 255.943390
-832.933838 911.553589 255.943390
-835.878845 894.385559 256.498383
-835.878845 891.005554 310.406403
-865.526855 744.938599 291.841400
-861.948853 729.550598 275.618378
-835.878845 725.453552 259.098389
-835.878845 726.455566 307.933380
-831.786865 944.413513 302.636383
-497.916870 269.075562 1006.671387
-24.800146 1705.393677 -396.466614
-522.523865 261.215576 991.996338
-522.523865 280.070557 991.536377
-22.966946 1766.683594 -417.261597
-23.758045 1850.093628 -417.291595
-521.978882 259.718567 988.103394
-503.041870 276.093567 989.336365
845.251160 -255.926407 227.711395
846.773132 -230.722412 231.273376
849.811157 -201.481415 242.726379
862.968140 -198.149506 256.326385
841.556152 -262.015411 246.048401
841.696167 -244.802414 227.113373
836.166138 -230.371414 226.718384
-37.324848 1664.623657 -468.701630
-36.522346 1664.813599 -468.701630
-39.555649 1380.293579 -468.701630
-25.477745 1708.453613 -381.648590
839.953125 -197.529205 238.476379
33.577152 1709.513672 -404.583618
846.566162 -199.012207 231.868378
836.701111 -198.098724 255.881378
-522.523865 244.745590 978.223389
-522.523865 197.170578 950.658386
-522.523865 248.540573 934.088379
-522.523865 175.730576 963.328369
-522.523865 230.683578 961.566345
-522.523865 169.185593 934.826355
-522.523865 166.195572 943.056335
-497.916870 256.810608 969.513367
840.891113 -262.131409 254.733398
843.513123 -249.141418 250.501373
805.013123 -750.974426 320.313385
790.261169 -737.851440 373.208405
790.476135 -746.189453 372.738403
773.826111 -747.816406 336.816376
-25.477745 1805.753662 -406.828613
-25.477745 1828.113647 -409.021606
-25.477745 1808.193604 -416.178619
-25.477745 1861.443604 -414.086609
-25.477745 1742.913574 -414.833618
-25.477745 1786.093628 -412.461609
-25.477745 1732.133667 -386.283600
-25.477745 1738.813599 -384.538605
-25.477745 1732.573608 -383.888611
-25.477745 1761.243652 -387.166595
-25.477745 1780.713623 -378.428619
-25.477745 1729.023682 -396.303619
33.577152 1867.323608 -398.743591
33.577152 1747.793579 -408.863617
33.577152 1775.623657 -409.978607
33.577152 1785.743652 -407.866608
33.577152 1837.973633 -398.266602
33.577152 1829.403687 -414.698608
33.577152 1776.833618 -381.806610
33.577152 1716.943604 -409.333618
33.577152 1762.033691 -390.708618
33.577152 1806.963623 -380.653595
33.577152 1749.783691 -378.696594
33.577152 1819.293579 -374.226593
-25.477745 1870.243652 -402.368591
33.577152 1871.643677 -387.076599
33.577152 1867.773682 -411.996613
-33.541847 1872.783691 -382.218597
-33.236649 1872.833618 -372.488617
40.769653 1872.773682 -375.571594
-40.241646 1867.853638 -400.168610
-50.076847 1724.753662 -458.288605
-55.108147 1728.763672 -451.141632
-41.384647 1719.923584 -466.953583
-55.557846 1730.893677 -447.398590
-113.612846 1731.433594 -445.253632
-131.156845 1728.273682 -450.433624
-125.802841 1735.403687 -438.033600
-117.332840 1731.953613 -444.251617
-118.925842 1767.503662 -380.226593
-86.903641 1764.423584 -386.481598
-91.378647 1763.923584 -387.298615
-102.146843 1761.543579 -391.361603
-96.355843 1755.723633 -402.016602
-72.067345 1766.903687 -382.326599
-103.435844 1766.093628 -383.111603
-73.786346 1751.483643 -410.168610
-87.922142 1743.543579 -424.221619
-90.878342 1746.103638 -419.543610
-45.878849 1774.883667 -368.438599
-50.016647 1747.933594 -417.098602
-81.343842 1760.223633 -394.206604
-102.316841 1750.953613 -410.516602
-66.368347 1277.703613 -460.186615
-118.969841 1268.033691 -446.643585
-81.444847 1277.853638 -460.391632
-64.159348 1281.433594 -465.413605
-54.197147 1264.733643 -442.021576
-64.085342 1262.763672 -439.273590
-46.667347 1262.843628 -439.383575
-71.236847 1219.613647 -378.866608
-121.007843 1227.303589 -389.631592
-117.027847 1231.163574 -395.036591
-115.016846 1217.503662 -375.903595
-94.333641 1220.903687 -380.673615
-110.163841 1211.483643 -367.483612
-135.396851 1249.233643 -420.323608
-63.828346 1237.713623 -404.201599
-71.537346 1239.993652 -407.398590
-50.523846 1213.123657 -369.776611
-92.116142 1237.883667 -404.443604
-83.900146 1232.713623 -397.201599
-88.372841 1257.243652 -431.541595
-80.321144 1253.333618 -426.066620
-44.104149 1254.053589 -427.071625
116.802155 1724.973633 -456.466583
78.618156 1724.373657 -458.378632
138.757156 1731.963623 -443.708588
115.059158 1732.443604 -443.401581
91.036156 1728.693604 -450.518585
68.995453 1736.923584 -436.573578
90.138153 1761.233643 -392.176605
131.383163 1752.753662 -406.566620
140.769150 1755.793579 -400.851593
116.763153 1767.683594 -379.901611
74.865356 1776.823608 -364.328613
107.620155 1768.043579 -379.463593
67.036858 1773.563599 -370.408600
76.955154 1759.953613 -394.801605
93.196358 1739.953613 -430.593597
69.699356 1763.313599 -388.893616
70.942856 1759.483643 -395.791595
75.316353 1741.753662 -427.761627
71.937859 1751.283691 -410.596619
78.355156 1752.893677 -407.536591
118.135155 1281.243652 -465.133575
62.766651 1282.853638 -467.391632
88.358154 1279.523682 -462.728607
52.670151 1271.153687 -451.016632
127.029160 1276.313599 -458.246613
108.977158 1266.563599 -444.588593
139.240158 1266.763672 -444.873627
109.157158 1259.973633 -435.361603
95.927353 1212.583618 -369.021606
116.329155 1237.643677 -404.108612
117.621155 1224.533691 -385.746613
123.538155 1213.613647 -370.461609
74.587654 1218.913574 -377.878601
137.461151 1237.383667 -403.741608
112.653160 1223.863647 -384.808594
126.775154 1253.543579 -426.356598
95.959160 1254.493652 -427.686615
88.191658 1255.443604 -429.018585
87.573158 1257.073608 -431.301605
84.334656 1255.423584 -428.998627
75.726654 1240.403687 -407.963593
52.310352 1221.403687 -381.363617
146.599152 1739.333618 -430.418610
145.974152 1224.363647 -385.508606
144.857162 1248.863647 -419.811615
411.963135 1723.233643 -441.361603
376.608154 1711.313599 -465.023590
313.203156 1716.463623 -460.928619
396.536133 1708.503662 -468.411591
333.721130 1716.583618 -459.121613
311.306152 1727.123657 -442.368622
278.421143 1724.723633 -449.133575
263.868134 1729.393677 -442.086578
319.228149 1725.613647 -444.396576
309.756134 1725.083618 -446.063629
257.688141 1721.163574 -456.998627
294.953156 1768.423584 -369.218597
406.068146 1750.043579 -393.556610
346.271149 1747.303589 -403.306610
402.421143 1739.283691 -413.306610
398.873138 1763.183594 -370.361603
381.428131 1762.123657 -373.683594
406.396149 1765.783691 -365.061615
270.841156 1770.803589 -366.861603
298.948151 1764.723633 -375.598602
373.508148 1759.693604 -378.711609
351.493134 1760.683594 -378.691620
400.608154 1743.643677 -405.561615
324.631134 1742.413574 -413.891602
295.691132 1754.163574 -394.968597
320.558136 1738.333618 -421.591614
266.426147 1742.503662 -418.396606
285.953156 1735.683594 -429.176605
271.211151 1748.913574 -406.416595
259.413147 1766.603638 -375.371613
278.818146 1764.763672 -377.148590
281.871155 1745.033691 -412.581604
269.668152 1750.863647 -403.008606
312.156128 1752.123657 -397.331604
245.573151 1728.683594 -444.653595
245.329163 1770.013672 -370.231598
331.153137 1283.563599 -468.391632
272.566132 1264.553589 -441.776581
294.006134 1276.033691 -457.856598
348.121155 1277.963623 -460.553619
277.313141 1272.843628 -453.383575
254.291153 1262.153687 -438.421600
377.978149 1265.143677 -442.603607
382.741150 1276.293579 -458.208588
331.411133 1265.373657 -442.926605
361.198151 1273.383667 -454.136627
307.408142 1267.033691 -445.243622
313.773132 1262.893677 -439.458588
364.076141 1222.283691 -382.598602
312.776154 1213.433594 -370.211609
411.696136 1224.023682 -385.031616
348.731140 1234.223633 -399.311615
362.128143 1235.753662 -401.458618
398.956146 1249.343628 -420.481598
341.896149 1206.993652 -361.191620
411.301147 1216.743652 -374.838593
282.543152 1216.893677 -375.051605
406.266144 1248.753662 -419.663605
354.023132 1225.393677 -386.951599
358.028137 1239.183594 -406.253601
278.873138 1209.443604 -364.618591
287.858154 1226.553589 -388.571594
374.373138 1258.843628 -433.776581
288.261139 1249.943604 -421.321594
365.146149 1258.403687 -433.168610
309.898132 1258.943604 -433.928619
355.328156 1242.363647 -410.711609
288.708130 1225.603638 -387.248596
256.461151 1249.393677 -420.553619
283.016144 1227.943604 -390.521606
350.141144 1252.163574 -424.426605
386.971130 1254.143677 -427.196625
281.191132 1243.923584 -412.888611
290.708130 1239.633667 -406.893616
248.213150 1222.973633 -383.561615
233.317154 1745.043579 -468.108612
235.075150 1800.243652 -367.263611
230.713150 1767.613647 -427.781586
203.788162 1746.213623 -467.441620
218.489151 1742.803589 -472.833588
197.151154 1743.453613 -472.661591
187.066162 1756.603638 -449.693634
162.064163 1765.423584 -435.118622
188.156158 1750.243652 -460.978607
170.237152 1762.613647 -439.756622
169.637161 1770.613647 -425.211578
180.044159 1778.833618 -409.516602
181.285156 1804.703613 -361.668610
192.983154 1795.373657 -378.343597
195.431152 1790.813599 -386.631592
190.488159 1768.373657 -428.328583
228.922150 1794.983643 -377.316620
208.976151 1772.763672 -419.318604
226.948151 1772.233643 -419.426605
219.177155 1775.723633 -413.353607
232.765152 1220.033691 -418.273590
179.087158 1247.703613 -456.656586
165.077164 1244.353638 -452.008575
166.587158 1245.783691 -454.003632
187.297150 1264.453613 -479.896576
204.160156 1235.373657 -439.558624
202.499161 1248.163574 -457.293610
188.587158 1234.203613 -437.936615
163.797150 1217.633667 -414.941620
194.391159 1189.903687 -376.476593
195.745163 1181.273682 -364.513611
167.484161 1178.373657 -360.486603
187.988159 1189.883667 -376.451599
225.974152 1186.043579 -371.123596
222.595154 1222.293579 -421.418610
217.056152 1211.213623 -406.048615
228.830154 1201.933594 -393.163605
228.982162 1206.113647 -398.966614
158.991150 1745.933594 -470.021576
156.718155 1195.753662 -384.596619
-163.071838 1802.703613 -366.328613
-207.033844 1743.093628 -472.983612
-167.571838 1739.943604 -480.398590
-217.271851 1748.003662 -463.748627
-197.859848 1751.853638 -457.768585
-211.985840 1763.583618 -436.196625
-202.028839 1801.403687 -366.883606
-221.545837 1797.433594 -373.291595
-189.604843 1788.013672 -392.216614
-183.161850 1799.283691 -371.696594
-174.359848 1784.323608 -399.751617
-163.993851 1800.053589 -371.183594
-167.203842 1800.243652 -370.676605
-168.235840 1799.043579 -372.851593
-159.362839 1242.473633 -449.406586
-158.547836 1219.003662 -416.853607
-160.712845 1219.613647 -417.693604
-214.762848 1253.153687 -464.221588
-212.037842 1238.403687 -443.763580
-175.499847 1244.133667 -451.706635
-195.060837 1237.883667 -443.031586
-202.428848 1241.513672 -448.068634
-180.310837 1193.083618 -380.888611
-203.333847 1198.483643 -388.383606
-200.808838 1208.283691 -401.983612
-200.638840 1188.793579 -374.943604
-174.088837 1230.113647 -432.251617
-194.151840 1210.283691 -404.756592
-194.234848 1227.173584 -428.178619
-170.854843 1205.823608 -398.563599
-176.446838 1199.563599 -389.878601
-225.377838 1757.033691 -447.256622
-227.194839 1788.633667 -389.251617
-223.687851 1245.603638 -453.738617
-306.521851 1723.723633 -448.788605
-268.641846 1722.403687 -454.023590
-305.531860 1721.913574 -452.028595
-304.536865 1712.703613 -468.268585
-328.628845 1712.833618 -466.176605
-260.616852 1720.633667 -457.748627
-336.308868 1723.823608 -446.303619
-368.403870 1719.703613 -451.053619
-363.818848 1727.783691 -437.231598
-320.568848 1724.113647 -447.016632
-326.213867 1723.493652 -447.668610
-399.136871 1712.473633 -461.366608
-310.448853 1759.313599 -384.543610
-406.321869 1746.683594 -399.748596
-325.326874 1766.283691 -370.741608
-353.926849 1753.143677 -392.228607
-326.773865 1767.543579 -368.351593
-391.953857 1740.633667 -411.833618
-362.733856 1765.863647 -368.533600
-361.851868 1743.643677 -408.788605
-352.776855 1764.723633 -371.388611
-344.586853 1754.943604 -389.728607
-409.253845 1735.483643 -419.776611
-350.333862 1748.723633 -400.516602
-349.373871 1740.253662 -415.913605
-251.046844 1735.073608 -433.116608
-335.903870 1741.693604 -414.381592
-307.303864 1735.193604 -428.413605
-253.631851 1742.843628 -418.848602
-388.038849 1729.973633 -431.418610
-360.166870 1732.033691 -429.923615
-301.136871 1738.923584 -422.163605
-327.368866 1747.063599 -405.348602
-358.286865 1741.553589 -412.853607
-340.896851 1731.413574 -432.568634
-375.596863 1732.373657 -428.078583
-241.640839 1770.803589 -369.128601
-386.451874 1275.283691 -456.798615
-387.278870 1270.963623 -450.746613
-388.173859 1268.093628 -446.731598
-369.698853 1274.903687 -456.271576
-317.986847 1275.383667 -456.938629
-314.263855 1282.913574 -467.476593
-257.961853 1277.583618 -460.018585
-324.131866 1262.903687 -439.466583
-282.968872 1276.403687 -458.368622
-371.501862 1262.833618 -439.371613
-361.336853 1261.393677 -437.356598
-297.433868 1275.963623 -457.753632
-307.113861 1219.803589 -379.128601
-392.286865 1232.833618 -397.376617
-386.746857 1248.863647 -419.816620
-333.976868 1214.803589 -372.123596
-315.113861 1221.183594 -381.053619
-375.908844 1214.713623 -372.006592
-351.193848 1231.873657 -396.023590
-377.261871 1222.163574 -382.436615
-379.308868 1230.693604 -394.376617
-350.641846 1231.193604 -395.076599
-332.336853 1215.363647 -372.906616
-338.121857 1225.243652 -386.746613
-405.188873 1217.003662 -375.208618
-312.378845 1247.243652 -417.538605
-299.003845 1237.013672 -403.221619
-295.621857 1245.953613 -415.741608
-277.366852 1236.963623 -403.146606
-260.953857 1222.303589 -382.623596
-314.778870 1257.503662 -431.906586
-278.703857 1256.923584 -431.096588
-262.833862 1226.743652 -388.841614
-274.158844 1249.933594 -421.303619
-266.996857 1226.753662 -388.853607
-401.856873 1258.983643 -433.981598
-262.621857 1215.313599 -372.836609
-292.183868 1248.123657 -418.776611
-243.267838 1278.383667 -461.143585
-245.051849 1212.253662 -368.563599
-239.182846 1248.953613 -419.931610
-148.468842 1727.193604 -451.843597
-144.678848 1767.513672 -379.578613
-147.118851 1740.223633 -428.866608
-147.189850 1269.103638 -448.153595
-140.914841 1215.123657 -372.578613
-142.572845 1234.173584 -399.243591
-433.941864 1305.463623 -393.496613
-433.941864 1443.033691 -384.831604
-433.941864 1300.043579 -378.061615
-433.941864 1310.473633 -397.916595
-433.941864 1314.023682 -404.151611
-433.941864 1310.903687 -427.068634
-433.941864 1422.933594 -377.541595
-433.941864 1407.083618 -375.563599
-433.941864 1540.383667 -368.826599
-433.941864 1336.443604 -410.578613
-433.941864 1315.203613 -403.773590
-433.941864 1415.563599 -369.351593
-433.941864 1258.703613 -361.816620
-433.941864 1526.783691 -379.621613
-433.941864 1525.843628 -394.388611
-433.941864 1366.813599 -413.616608
-433.941864 1364.853638 -410.016602
-433.941864 1331.133667 -423.328613
-433.941864 1605.053589 -373.688599
-433.941864 1327.733643 -408.233612
-433.941864 1651.563599 -365.501617
-433.941864 1579.013672 -362.758606
-433.941864 1401.663574 -371.308594
-433.941864 1452.813599 -396.781616
-433.941864 1461.023682 -385.808594
-433.941864 1369.673584 -382.668610
-433.941864 1319.433594 -425.688629
-433.941864 1494.383667 -372.666595
-433.941864 1489.983643 -396.348602
-433.941864 1319.363647 -386.111603
-433.941864 1291.583618 -371.278595
-433.941864 1637.723633 -406.318604
-433.941864 1625.293579 -425.021576
-433.941864 1531.703613 -414.891602
-433.941864 1360.893677 -431.323578
-433.941864 1629.283691 -380.556610
-433.941864 1697.873657 -410.428619
-433.941864 1595.763672 -411.321594
-433.941864 1591.953613 -429.656586
-433.941864 1449.573608 -412.286591
-433.941864 1593.493652 -410.553619
-433.941864 1567.473633 -396.356598
-433.941864 1435.503662 -433.491608
-433.941864 1563.113647 -421.538605
-433.941864 1636.653687 -383.423615
-433.941864 1575.273682 -403.041595
-433.941864 1380.673584 -431.346588
-433.941864 1554.443604 -399.491608
-433.941864 1429.643677 -418.323608
-433.941864 1431.753662 -426.876617
-433.941864 1388.123657 -433.298615
-433.941864 1575.453613 -402.483612
-433.941864 1632.213623 -393.551605
-433.941864 1484.443604 -423.886597
-433.941864 1384.683594 -422.966614
-433.941864 1665.233643 -420.938599
-433.941864 1584.813599 -401.578613
-433.941864 1544.523682 -439.701630
-433.941864 1638.943604 -460.756622
-433.941864 1589.133667 -445.486603
-433.941864 1582.023682 -438.811615
-433.941864 1687.493652 -442.968597
-433.941864 1441.543579 -439.346588
-433.941864 1498.403687 -444.726593
-433.941864 1604.443604 -452.126617
-433.941864 1668.643677 -452.793610
-433.941864 1405.513672 -444.303619
-433.941864 1514.913574 -446.943634
-433.941864 1672.263672 -436.871613
-433.941864 1361.523682 -454.066620
-433.941864 1414.173584 -455.011627
-433.941864 1462.543579 -455.403595
-433.941864 1411.453613 -451.971588
-433.941864 1301.963623 -436.138580
-433.941864 1414.763672 -458.241608
-433.941864 1514.963623 -454.688629
-433.941864 1530.283691 -456.251617
-433.941864 1466.483643 -451.318634
-433.941864 1422.293579 -468.458588
-433.941864 1407.943604 -468.131622
-433.941864 1246.793579 -404.346619
-433.941864 1243.253662 -382.758606
-433.941864 1252.023682 -382.971619
-433.941864 1271.643677 -411.326599
-433.941864 1299.033691 -459.916595
432.198151 1475.313599 -377.203613
432.198151 1575.783691 -364.446594
432.198151 1638.583618 -364.286591
432.198151 1563.743652 -409.971619
432.198151 1609.283691 -402.301605
432.198151 1627.403687 -399.833618
432.198151 1499.613647 -399.326599
432.198151 1515.233643 -389.093597
432.198151 1555.393677 -410.598602
432.198151 1642.583618 -409.133606
432.198151 1466.513672 -372.026611
432.198151 1549.303589 -410.056610
432.198151 1582.293579 -390.413605
432.198151 1608.473633 -406.606598
432.198151 1474.713623 -391.718597
432.198151 1602.623657 -401.058594
432.198151 1694.683594 -369.646606
432.198151 1662.403687 -384.181610
432.198151 1585.573608 -388.921600
432.198151 1547.843628 -368.778595
432.198151 1587.973633 -392.721619
432.198151 1706.813599 -377.978607
432.198151 1532.383667 -382.061615
432.198151 1363.033691 -377.876617
432.198151 1320.393677 -371.863617
432.198151 1587.333618 -399.031616
432.198151 1673.383667 -428.166595
432.198151 1624.993652 -383.756592
432.198151 1501.503662 -360.443604
432.198151 1655.723633 -418.451599
432.198151 1627.613647 -416.701599
432.198151 1385.003662 -419.108612
432.198151 1485.613647 -423.231598
432.198151 1608.053589 -430.403595
432.198151 1303.923584 -386.178619
432.198151 1291.523682 -380.258606
432.198151 1340.713623 -391.546600
432.198151 1435.323608 -428.153595
432.198151 1378.713623 -419.403595
432.198151 1390.413574 -406.283600
432.198151 1593.053589 -418.051605
432.198151 1338.553589 -380.831604
432.198151 1349.153687 -384.968597
432.198151 1445.143677 -408.436615
432.198151 1379.063599 -413.536591
432.198151 1357.523682 -404.016602
432.198151 1541.593628 -427.848602
432.198151 1535.653687 -424.443634
432.198151 1470.783691 -426.311615
432.198151 1425.393677 -421.188599
432.198151 1493.623657 -415.171600
432.198151 1317.413574 -398.778595
432.198151 1448.983643 -414.738617
432.198151 1356.303589 -379.866608
432.198151 1362.323608 -406.191620
432.198151 1297.223633 -408.233612
432.198151 1260.923584 -368.411591
432.198151 1437.373657 -451.841583
432.198151 1312.233643 -435.521576
432.198151 1347.123657 -461.843597
432.198151 1558.523682 -439.753632
432.198151 1461.193604 -442.096588
432.198151 1348.533691 -462.743622
432.198151 1336.683594 -447.861603
432.198151 1356.073608 -445.643585
432.198151 1358.523682 -440.978607
432.198151 1555.913574 -443.273590
432.198151 1551.263672 -445.658600
432.198151 1475.873657 -441.101593
432.198151 1578.443604 -448.428619
432.198151 1598.323608 -458.381622
432.198151 1444.693604 -466.991608
432.198151 1569.463623 -456.706635
432.198151 1332.453613 -467.338593
432.198151 1670.603638 -444.356598
432.198151 1546.113647 -458.383575
432.198151 1366.113647 -466.611603
432.198151 1526.903687 -463.046600
432.198151 1646.183594 -453.763580
432.198151 1393.763672 -467.798615
432.198151 1246.483643 -380.708618
432.198151 1246.013672 -386.483612
432.198151 1254.973633 -411.008606
432.198151 1271.263672 -428.796600
432.198151 1271.063599 -439.393585
-433.941864 1737.543579 -364.366608
-433.941864 1712.873657 -406.251617
-433.941864 1724.523682 -432.818634
-433.941864 1726.943604 -404.186615
-433.941864 1706.863647 -463.156586
-433.941864 1684.823608 -463.533600
432.198151 1751.883667 -378.853607
432.198151 1747.313599 -393.991608
432.198151 1714.753662 -401.646606
432.198151 1722.943604 -431.891632
432.198151 1682.343628 -454.316620
432.198151 1700.193604 -464.256622
-232.124847 1781.863647 -375.381592
-234.838837 1779.723633 -365.041595
-235.345840 1745.313599 -424.713593
-228.952850 1777.433594 -400.561615
-229.142838 1740.253662 -467.008575
-228.074844 1739.423584 -474.168610
-231.165848 1731.703613 -471.383575
-228.453842 1226.703613 -422.751617
-229.724838 1203.683594 -385.788605
-236.203842 1239.923584 -410.791595
-236.167847 1253.533691 -429.973602
-229.069839 1241.133667 -440.458588
-232.244843 1268.603638 -466.276581
-155.829849 1793.153687 -370.918610
-153.693848 1760.733643 -419.171600
-150.332840 1767.423584 -389.271606
-157.815842 1756.693604 -448.118622
-148.877838 1722.073608 -462.746613
-152.770844 1217.563599 -393.033600
-149.071838 1223.023682 -385.893616
-155.183838 1225.973633 -414.188599
-155.704849 1227.523682 -418.361603
-157.999847 1233.103638 -435.033600
-154.675842 1267.403687 -469.731598
148.892151 1780.823608 -366.308594
147.481155 1740.593628 -431.876617
153.085159 1780.453613 -388.556610
154.575150 1758.203613 -437.596588
155.053162 1205.633667 -392.136597
147.457153 1211.663574 -370.441620
149.579163 1230.543579 -405.216614
152.977158 1247.623657 -442.408600
150.263153 1275.663574 -470.921600
240.835159 1774.523682 -385.406616
238.241150 1774.563599 -399.198608
239.004150 1753.073608 -434.231598
244.930161 1741.913574 -422.468597
242.369156 1742.953613 -434.398590
239.553162 1749.233643 -438.166595
241.532150 1732.603638 -457.218597
245.023163 1246.853638 -417.668610
243.201157 1217.563599 -383.946594
237.490158 1197.373657 -378.498596
238.824158 1227.333618 -414.866608
236.804153 1264.103638 -473.733612
-419.913849 1723.783691 -439.783600
-431.288849 1749.433594 -392.398590
-425.501862 1739.603638 -410.761597
-421.916870 1275.143677 -456.601593
-426.498871 1266.753662 -444.863617
-430.546844 1238.973633 -405.961609
-423.328857 1242.993652 -411.588593
423.488129 1710.093628 -463.286591
428.678131 1724.683594 -437.156586
430.351135 1765.393677 -363.446594
422.943146 1754.853638 -383.276611
412.536133 1763.793579 -368.163605
413.303131 1728.893677 -431.216583
421.376129 1259.943604 -435.321625
422.291138 1219.393677 -378.558594
421.778137 1209.933594 -365.316620
417.753143 1252.383667 -424.743622
-70.269341 1792.493652 -335.128601
-52.506847 1784.193604 -351.106598
-41.033146 1799.193604 -323.176605
-91.199142 1800.983643 -318.693604
-41.907848 1786.503662 -347.008606
-102.765846 1797.193604 -325.571594
-134.109848 1794.013672 -330.851593
-91.007141 1793.613647 -332.551605
-132.658844 1793.423584 -331.993591
-113.114845 1797.523682 -324.721619
-111.381844 1795.613647 -328.333618
-122.722847 1186.333618 -332.266602
-44.986149 1204.863647 -358.206604
-69.257141 1191.143677 -339.006592
-136.157837 1185.693604 -331.371613
-124.344841 1188.713623 -335.601593
-79.664642 1202.053589 -354.283600
-118.354843 1198.283691 -349.006592
85.139160 1795.043579 -329.998596
52.498154 1789.823608 -340.596619
92.788155 1796.843628 -326.436615
48.916351 1787.673584 -344.723602
88.211655 1793.423584 -332.981598
133.674164 1801.013672 -317.613617
115.255157 1784.923584 -348.286591
138.291153 1800.103638 -319.206604
112.204155 1785.063599 -348.111603
103.071159 1796.163574 -327.466614
56.345654 1196.863647 -347.013611
100.603157 1193.623657 -342.481598
100.219154 1191.133667 -338.983612
114.193153 1198.083618 -348.721619
135.675156 1205.073608 -358.508606
139.105164 1197.933594 -348.511597
145.825150 1800.473633 -318.281616
295.256134 1782.123657 -343.803619
335.228149 1795.573608 -315.193604
270.621155 1787.493652 -335.763611
290.486145 1795.953613 -318.206604
369.708130 1797.373657 -308.926605
257.246155 1791.973633 -328.461609
252.033157 1790.913574 -330.883606
254.531158 1781.413574 -348.526611
302.148132 1784.853638 -338.091614
391.276154 1778.813599 -342.013611
274.536133 1778.223633 -352.861603
384.338135 1769.623657 -359.858612
396.556152 1796.823608 -307.713593
299.141144 1779.483643 -348.428619
327.133148 1776.253662 -352.178619
308.488129 1775.693604 -354.786591
332.311127 1782.473633 -340.058594
358.351135 1771.583618 -358.341614
329.806152 1777.313599 -349.958618
246.906158 1787.473633 -337.708618
343.256134 1193.303589 -342.028595
302.548126 1197.633667 -348.091614
276.068146 1198.413574 -349.176605
273.758148 1196.723633 -346.811615
279.888153 1196.073608 -345.906616
401.861145 1194.623657 -343.878601
394.923126 1202.303589 -354.631592
377.178131 1198.313599 -349.041595
290.163147 1206.033691 -359.856598
301.291138 1203.323608 -356.056610
246.446152 1187.343628 -333.686615
230.646164 1822.913574 -324.208618
235.277161 1828.863647 -312.491608
219.209152 1826.833618 -317.261597
204.886154 1828.853638 -314.106598
214.165161 1825.853638 -319.393616
202.390152 1819.713623 -331.798615
187.721161 1811.293579 -348.723602
186.101151 1816.243652 -339.293610
165.690155 1815.943604 -340.891602
193.092163 1809.043579 -352.786591
218.201157 1170.973633 -350.223602
228.713150 1171.373657 -350.783600
190.302155 1172.983643 -353.008606
194.515152 1170.453613 -349.506592
-180.500839 1815.693604 -340.748596
-179.865845 1827.033691 -318.966614
-178.659851 1819.063599 -334.346619
-172.527847 1825.063599 -323.111603
-220.983841 1828.353638 -314.401611
-195.227844 1810.433594 -350.123596
-175.847839 1806.123657 -359.376617
-158.962845 1174.573608 -355.218597
-176.989838 1173.463623 -353.683594
-167.625839 1168.783691 -347.188599
-212.838837 1161.863647 -337.591614
-210.378845 1177.913574 -359.853607
-340.711853 1794.803589 -316.283600
-294.283844 1801.703613 -307.151611
-364.438873 1799.253662 -305.956604
-250.442841 1803.063599 -308.216614
-341.766846 1792.193604 -321.088593
-384.566864 1797.413574 -307.733612
-313.528870 1788.873657 -329.673615
-301.776855 1800.633667 -308.538605
-298.531860 1796.113647 -317.306610
-328.393860 1791.533691 -323.448608
-329.256866 1778.713623 -347.466614
-398.598846 1779.993652 -339.321594
-399.546844 1791.193604 -318.191620
-401.481873 1791.473633 -317.511597
-343.026855 1777.483643 -348.636597
-388.538849 1780.183594 -339.798615
-392.801849 1774.433594 -350.243591
-329.063873 1773.393677 -357.478607
-356.298859 1773.713623 -354.623596
-242.680847 1796.873657 -320.403595
-237.096848 1793.353638 -327.363617
-287.328857 1197.663574 -348.123596
-332.406860 1191.183594 -339.056610
-337.391846 1192.513672 -340.921600
-252.753845 1196.683594 -346.753601
-274.153870 1194.423584 -343.591614
-402.598846 1197.253662 -347.548615
-330.746857 1200.583618 -352.221619
-363.236847 1193.513672 -342.326599
-409.646851 1193.193604 -341.873596
-315.328857 1199.353638 -350.501617
-243.675842 1194.273682 -343.386597
-142.885849 1783.023682 -351.241608
-433.941864 1517.823608 -341.733612
-433.941864 1636.643677 -346.343597
-433.941864 1330.753662 -331.566620
-433.941864 1336.733643 -324.973602
-433.941864 1660.873657 -352.098602
-433.941864 1640.533691 -348.526611
-433.941864 1578.233643 -318.311615
-433.941864 1613.333618 -344.406616
-433.941864 1658.273682 -311.653595
-433.941864 1614.353638 -316.301605
-433.941864 1689.513672 -350.391602
-433.941864 1437.663574 -328.753601
-433.941864 1416.983643 -331.181610
-433.941864 1527.413574 -343.421600
-433.941864 1727.293579 -334.281616
-433.941864 1543.003662 -340.053619
-433.941864 1345.373657 -328.573608
-433.941864 1470.883667 -333.088593
-433.941864 1578.273682 -337.413605
-433.941864 1635.613647 -327.793610
-433.941864 1621.733643 -328.263611
-433.941864 1646.353638 -322.076599
-433.941864 1410.373657 -333.476593
-433.941864 1726.283691 -348.458618
-433.941864 1335.143677 -334.546600
-433.941864 1575.663574 -342.806610
-433.941864 1382.023682 -354.731598
-433.941864 1279.573608 -334.358612
-433.941864 1376.863647 -343.551605
-433.941864 1313.793579 -349.198608
-433.941864 1560.293579 -360.046600
-433.941864 1295.833618 -349.178619
-433.941864 1544.363647 -349.478607
-433.941864 1678.683594 -358.173615
-433.941864 1408.053589 -343.793610
-433.941864 1503.183594 -351.696594
-433.941864 1605.333618 -352.918610
-433.941864 1660.913574 -357.373596
-433.941864 1394.503662 -357.658600
-433.941864 1215.733643 -332.683594
-433.941864 1217.333618 -347.948608
432.198151 1514.923584 -345.156616
432.198151 1752.063599 -311.466614
432.198151 1364.813599 -335.711609
432.198151 1630.473633 -349.438599
432.198151 1478.493652 -334.791595
432.198151 1591.573608 -334.436615
432.198151 1419.993652 -320.703613
432.198151 1407.233643 -324.158600
432.198151 1300.573608 -330.036591
432.198151 1745.143677 -311.668610
432.198151 1636.943604 -346.011597
432.198151 1614.653687 -330.241608
432.198151 1661.803589 -313.868591
432.198151 1313.753662 -327.446594
432.198151 1567.603638 -325.766602
432.198151 1649.283691 -349.136597
432.198151 1354.883667 -334.016602
432.198151 1551.003662 -324.223602
432.198151 1731.253662 -320.233612
432.198151 1292.283691 -332.441620
432.198151 1720.573608 -340.701599
432.198151 1596.833618 -346.581604
432.198151 1590.073608 -325.436615
432.198151 1504.693604 -315.938599
432.198151 1614.173584 -316.201599
432.198151 1656.033691 -314.691620
432.198151 1461.753662 -346.136597
432.198151 1330.583618 -357.316620
432.198151 1370.863647 -346.276611
432.198151 1367.733643 -344.633606
432.198151 1329.133667 -341.228607
432.198151 1561.923584 -352.423615
432.198151 1305.713623 -337.993591
432.198151 1302.633667 -338.423615
432.198151 1494.313599 -351.026611
432.198151 1549.983643 -352.438599
432.198151 1277.133667 -354.548615
432.198151 1370.183594 -353.101593
432.198151 1338.623657 -350.188599
432.198151 1212.223633 -341.741608
432.198151 1210.683594 -337.291595
432.198151 1221.383667 -358.866608
-433.941864 1777.273682 -334.568604
-433.941864 1774.173584 -319.223602
-433.941864 1754.523682 -326.286591
-433.941864 1751.843628 -335.126617
432.198151 1782.273682 -323.931610
432.198151 1769.043579 -317.341614
432.198151 1763.963623 -334.633606
432.198151 1747.313599 -337.296600
-229.970840 1805.273682 -343.668610
-236.727844 1795.413574 -325.468597
-234.686844 1783.313599 -359.298615
-236.143845 1187.893677 -338.261597
-153.331848 1818.843628 -308.993591
-152.183838 1808.633667 -322.511597
-149.902847 1782.193604 -360.051605
-154.765839 1170.273682 -334.968597
156.592163 1818.113647 -337.053619
156.034149 1829.033691 -313.091614
149.215149 1794.043579 -343.413605
154.405151 1166.473633 -335.218597
149.894150 1194.513672 -356.271606
241.657150 1809.753662 -315.003601
236.620163 1809.683594 -342.461609
242.293152 1802.943604 -324.498596
243.868149 1188.213623 -340.221619
240.097153 1181.533691 -346.058594
-414.908844 1771.393677 -354.108612
-429.113861 1788.133667 -321.138611
421.798126 1795.423584 -308.033600
426.198151 1782.163574 -332.486603
-94.463142 1295.563599 -468.701630
-76.054344 1291.153687 -468.701630
-85.964844 1300.343628 -468.701630
-52.290646 1295.523682 -468.701630
-137.639847 1428.433594 -468.701630
-122.498840 1593.743652 -468.701630
-125.977844 1556.893677 -468.701630
-134.336838 1632.073608 -468.701630
-108.720840 1367.303589 -468.701630
-119.553841 1479.233643 -468.701630
-105.536842 1340.433594 -468.701630
-112.226845 1485.033691 -468.701630
-112.957840 1554.283691 -468.701630
-95.655846 1403.463623 -468.701630
-136.800842 1496.533691 -468.701630
-126.292847 1616.293579 -468.701630
-117.496841 1504.303589 -468.701630
-79.260147 1401.203613 -468.701630
-116.474846 1423.453613 -468.701630
-124.362846 1359.383667 -468.701630
-120.502846 1452.243652 -468.701630
-76.165840 1380.633667 -468.701630
-66.196342 1391.673584 -468.701630
-94.466644 1389.953613 -468.701630
-136.634842 1316.053589 -468.701630
-126.065842 1413.413574 -468.701630
-122.805847 1323.903687 -468.701630
-108.350845 1309.883667 -468.701630
-52.033646 1328.073608 -468.701630
-130.746841 1329.263672 -468.701630
-123.100845 1359.263672 -468.701630
-125.294846 1524.813599 -468.701630
-135.506851 1664.383667 -468.701630
-126.703842 1349.613647 -468.701630
-77.538643 1349.333618 -468.701630
-115.038841 1537.033691 -468.701630
-88.180344 1425.873657 -468.701630
-43.833847 1430.973633 -468.701630
-63.064148 1608.203613 -468.701630
-61.255348 1636.603638 -468.701630
-75.637047 1638.103638 -468.701630
-60.402847 1674.603638 -468.701630
-91.491142 1665.463623 -468.701630
-56.354347 1562.183594 -468.701630
-54.310146 1536.303589 -468.701630
-76.724640 1518.913574 -468.701630
-48.325649 1559.613647 -468.701630
-52.880348 1546.013672 -468.701630
-86.195343 1580.433594 -468.701630
-80.301842 1638.133667 -468.701630
-97.998344 1529.343628 -468.701630
-77.218643 1452.383667 -468.701630
-99.473846 1550.413574 -468.701630
-68.356140 1454.453613 -468.701630
-43.951649 1468.233643 -468.701630
-90.512840 1682.473633 -468.701630
-102.118843 1673.673584 -468.701630
-65.653343 1566.603638 -468.701630
-80.401146 1558.653687 -468.701630
-72.860146 1484.613647 -468.701630
-93.245644 1582.543579 -468.701630
-86.666145 1652.303589 -468.701630
-79.666847 1578.033691 -468.701630
-90.033340 1499.433594 -468.701630
-78.237144 1458.933594 -468.701630
-47.861149 1509.563599 -468.701630
-133.091843 1667.693604 -468.701630
-59.115147 1455.923584 -468.701630
-73.810341 1490.543579 -468.701630
-67.480644 1688.153687 -468.701630
-96.640144 1694.973633 -468.701630
-133.880844 1716.993652 -468.701630
-55.080647 1692.813599 -468.701630
-54.654846 1710.923584 -468.701630
82.603653 1301.403687 -468.701630
112.374153 1304.803589 -468.701630
56.698353 1294.513672 -468.701630
55.895351 1295.653687 -468.701630
106.139160 1638.023682 -468.701630
114.460159 1685.553589 -468.701630
87.740860 1535.133667 -468.701630
133.095154 1526.153687 -468.701630
85.349159 1644.193604 -468.701630
122.666153 1446.553589 -468.701630
90.153656 1646.293579 -468.701630
123.111153 1674.633667 -468.701630
129.150162 1617.383667 -468.701630
56.850651 1685.303589 -468.701630
75.843155 1638.723633 -468.701630
105.585159 1516.603638 -468.701630
93.690857 1685.733643 -468.701630
106.416153 1504.593628 -468.701630
135.687149 1663.363647 -468.701630
122.143158 1575.483643 -468.701630
140.517151 1424.483643 -468.701630
116.294159 1414.413574 -468.701630
115.375153 1603.143677 -468.701630
119.262154 1658.043579 -468.701630
99.133354 1548.133667 -468.701630
113.382156 1572.283691 -468.701630
77.940659 1645.013672 -468.701630
107.446159 1506.873657 -468.701630
86.817154 1573.103638 -468.701630
115.591156 1676.063599 -468.701630
99.767159 1508.053589 -468.701630
109.796158 1491.173584 -468.701630
66.678154 1649.153687 -468.701630
116.017159 1427.813599 -468.701630
117.519157 1491.503662 -468.701630
59.110352 1363.613647 -468.701630
87.556854 1425.703613 -468.701630
102.786156 1439.503662 -468.701630
81.268356 1539.903687 -468.701630
49.107853 1503.313599 -468.701630
87.100357 1373.873657 -468.701630
86.535355 1361.953613 -468.701630
88.393158 1368.553589 -468.701630
86.857658 1457.923584 -468.701630
113.136154 1332.963623 -468.701630
51.329651 1461.073608 -468.701630
84.949356 1513.023682 -468.701630
50.294353 1655.873657 -468.701630
52.915154 1664.483643 -468.701630
97.305153 1479.393677 -468.701630
71.390358 1554.813599 -468.701630
92.353157 1328.943604 -468.701630
103.179153 1446.083618 -468.701630
59.040352 1345.733643 -468.701630
51.398354 1386.583618 -468.701630
64.720657 1493.223633 -468.701630
72.968658 1322.283691 -468.701630
57.591354 1332.273682 -468.701630
49.177853 1405.393677 -468.701630
75.508156 1319.933594 -468.701630
53.174652 1537.993652 -468.701630
59.464352 1351.823608 -468.701630
50.041153 1396.173584 -468.701630
76.070656 1404.513672 -468.701630
95.217659 1410.683594 -468.701630
135.139160 1714.143677 -468.701630
120.148155 1692.613647 -468.701630
81.315453 1697.753662 -468.701630
107.918159 1713.063599 -468.701630
146.299164 1304.443604 -468.701630
144.885162 1670.163574 -468.701630
145.387161 1500.273682 -468.701630
145.517151 1392.823608 -468.701630
394.286133 1290.233643 -468.701630
382.033142 1300.193604 -468.701630
359.091156 1299.523682 -468.701630
327.733154 1283.793579 -468.701630
379.448151 1285.383667 -468.701630
341.351135 1284.513672 -468.701630
393.073151 1661.993652 -468.701630
370.983154 1585.693604 -468.701630
371.413147 1408.693604 -468.701630
358.751129 1610.573608 -468.701630
360.286133 1677.443604 -468.701630
328.171143 1572.143677 -468.701630
321.098145 1557.623657 -468.701630
333.091156 1554.373657 -468.701630
371.226135 1671.713623 -468.701630
408.808136 1397.353638 -468.701630
382.351135 1470.903687 -468.701630
404.361145 1385.693604 -468.701630
288.191132 1610.013672 -468.701630
329.393127 1546.813599 -468.701630
327.168152 1630.483643 -468.701630
332.241150 1498.113647 -468.701630
402.093140 1624.693604 -468.701630
368.873138 1439.263672 -468.701630
310.616150 1601.063599 -468.701630
331.048126 1520.553589 -468.701630
374.853149 1664.353638 -468.701630
333.696136 1651.873657 -468.701630
387.296143 1619.403687 -468.701630
311.683136 1577.343628 -468.701630
391.061127 1506.773682 -468.701630
384.246155 1422.173584 -468.701630
349.856140 1608.433594 -468.701630
408.373138 1470.543579 -468.701630
391.616150 1599.933594 -468.701630
405.831146 1387.443604 -468.701630
312.336151 1653.503662 -468.701630
387.003143 1403.813599 -468.701630
407.038147 1463.743652 -468.701630
296.381134 1658.393677 -468.701630
401.331146 1485.423584 -468.701630
380.341156 1541.633667 -468.701630
334.356140 1520.963623 -468.701630
399.823151 1362.733643 -468.701630
384.738129 1598.263672 -468.701630
395.106140 1431.383667 -468.701630
363.938141 1625.663574 -468.701630
352.976135 1586.103638 -468.701630
373.031128 1598.033691 -468.701630
334.736145 1561.913574 -468.701630
403.601135 1531.403687 -468.701630
405.246155 1555.693604 -468.701630
335.691132 1617.113647 -468.701630
390.548126 1550.823608 -468.701630
291.711151 1610.733643 -468.701630
355.076141 1655.223633 -468.701630
381.913147 1658.303589 -468.701630
290.586151 1511.463623 -468.701630
307.676147 1503.973633 -468.701630
259.631134 1594.383667 -468.701630
390.523132 1316.813599 -468.701630
344.661133 1358.193604 -468.701630
332.901154 1434.723633 -468.701630
328.478149 1309.013672 -468.701630
258.606140 1309.563599 -468.701630
257.568146 1615.403687 -468.701630
295.811127 1413.733643 -468.701630
271.293152 1611.523682 -468.701630
273.156128 1622.853638 -468.701630
334.241150 1431.013672 -468.701630
263.536133 1326.663574 -468.701630
254.576157 1416.533691 -468.701630
252.201157 1508.513672 -468.701630
270.041138 1634.663574 -468.701630
259.208130 1444.543579 -468.701630
286.696136 1327.213623 -468.701630
259.773132 1616.043579 -468.701630
377.846130 1345.053589 -468.701630
307.238129 1326.193604 -468.701630
253.726151 1507.223633 -468.701630
294.518127 1511.603638 -468.701630
281.276154 1407.203613 -468.701630
284.738129 1349.183594 -468.701630
325.808136 1473.883667 -468.701630
384.531128 1308.863647 -468.701630
317.733154 1399.383667 -468.701630
270.906128 1618.213623 -468.701630
270.198151 1581.373657 -468.701630
346.743134 1440.113647 -468.701630
278.226135 1417.233643 -468.701630
308.876129 1545.923584 -468.701630
324.203156 1411.403687 -468.701630
257.791138 1583.923584 -468.701630
254.388153 1644.333618 -468.701630
274.833130 1433.413574 -468.701630
297.551147 1446.833618 -468.701630
263.626129 1371.553589 -468.701630
269.533142 1547.503662 -468.701630
276.618134 1484.583618 -468.701630
298.928131 1517.533691 -468.701630
267.266144 1489.473633 -468.701630
351.973145 1335.533691 -468.701630
306.106140 1327.303589 -468.701630
290.881134 1438.693604 -468.701630
290.138153 1318.983643 -468.701630
319.486145 1339.193604 -468.701630
372.296143 1366.113647 -468.701630
287.891144 1534.633667 -468.701630
307.103149 1420.593628 -468.701630
253.936157 1360.293579 -468.701630
246.782150 1409.163574 -468.701630
248.036163 1557.073608 -468.701630
247.183151 1571.013672 -468.701630
283.051147 1681.013672 -468.701630
385.486145 1701.623657 -468.701630
365.406128 1697.063599 -468.701630
338.023132 1683.323608 -468.701630
377.113129 1704.313599 -468.701630
254.273163 1709.283691 -468.701630
388.998138 1705.703613 -468.701630
326.116150 1701.133667 -468.701630
184.059158 1272.833618 -480.906586
208.804153 1284.633667 -480.906586
198.797150 1287.313599 -480.906586
233.716156 1564.763672 -480.906586
233.358154 1538.333618 -480.906586
233.081161 1475.793579 -480.906586
