ply
format ascii 1.0
element vertex 1325
property float x
property float y
property float z
end_header
-245.839996 -2428.125732 -340.250977
-188.559998 -2437.405762 -342.171936
-291.031982 -2402.205566 -347.491943
-225.851990 -2419.325684 -347.093933
-247.491989 -2418.205566 -345.047974
-297.112000 -2409.245605 -343.077942
-334.044006 -2408.445557 -337.829956
-314.667999 -2401.125732 -344.557983
-307.388000 -2405.685547 -343.332947
-316.699982 -2396.365723 -346.495972
-330.324005 -2392.365723 -346.186951
-333.563995 -2385.725586 -348.581970
-319.544006 -2376.405762 -354.763977
-362.407990 -2381.245605 -346.217957
-334.739990 -2374.805664 -353.174988
-406.832001 -2385.965576 -337.529968
-406.403992 -2369.725586 -344.757935
-392.123993 -2382.005615 -341.450989
-351.507996 -2370.845703 -352.335938
-402.015991 -2362.005615 -348.238953
-366.795990 -2355.565674 -355.667969
-339.772003 -2363.005615 -356.879944
-351.463989 -2362.205566 -355.477966
-448.335999 -2344.725586 -347.993958
-415.052002 -2344.725586 -352.756958
-382.511993 -2353.125732 -354.297974
-420.003998 -2361.285645 -345.913940
-397.951996 -2354.205566 -351.689941
-402.475983 -2327.445557 -359.982971
-414.523987 -2331.725586 -357.032959
-455.911987 -2336.685547 -349.842957
-390.395996 -2324.725586 -362.456970
-370.996002 -2322.805664 -365.705933
-370.007996 -2340.125732 -360.659973
-473.147980 -2307.245605 -356.561951
-468.332001 -2314.125732 -355.094971
-385.091980 -2319.445557 -364.769958
-444.011993 -2320.045654 -356.576965
-378.123993 -2316.845703 -366.521973
-448.475983 -2333.685547 -351.779968
-436.888000 -2302.645752 -362.663940
-403.015991 -2307.125732 -365.965942
-436.403992 -2293.365723 -365.121948
-384.911987 -2304.845703 -368.945984
-393.444000 -2293.245605 -370.822937
-424.419983 -2293.485596 -366.678955
-443.832001 -2287.285645 -365.927979
-455.824005 -2294.605713 -362.311951
-558.072021 -2477.365723 -204.078964
-546.884033 -2480.965576 -206.314957
-541.564026 -2478.885742 -215.190964
-536.032043 -2465.485596 -239.978958
-530.007996 -2463.445557 -245.478958
-493.115997 -2475.965576 -246.362961
-484.407990 -2477.645752 -247.990952
-503.419983 -2465.885742 -254.006973
-498.923981 -2465.205566 -256.642944
-461.399994 -2477.445557 -257.374939
-462.667999 -2479.485596 -254.550949
-481.276001 -2462.565674 -265.746948
-468.531982 -2470.325684 -262.222961
-434.992004 -2471.725586 -271.978943
-450.911987 -2473.405762 -265.014954
-453.791992 -2461.245605 -276.182983
-431.488007 -2465.125732 -279.022949
-412.095978 -2470.645752 -279.482971
-432.559998 -2453.605713 -288.922974
-406.507996 -2458.165527 -291.586975
-407.915985 -2463.365723 -287.026978
-378.639984 -2469.125732 -289.350952
-387.143982 -2463.445557 -291.922974
-369.755981 -2453.085693 -303.606934
-383.095978 -2450.405762 -302.910950
-370.152008 -2457.005615 -300.658936
-380.947998 -2454.205566 -300.558960
-342.440002 -2468.285645 -297.822937
-322.156006 -2456.965576 -310.054932
-310.691986 -2460.125732 -309.922974
-277.291992 -2461.445557 -314.594971
-280.367981 -2455.805664 -317.874939
-291.315979 -2456.765625 -315.582947
-259.119995 -2471.165527 -310.274963
-221.595993 -2465.885742 -319.910950
-245.639999 -2476.045654 -308.470947
-81.168289 -2443.005615 -350.287964
-27.532194 -2448.965576 -351.847961
-76.440193 -2438.485596 -352.904968
-119.195992 -2440.565674 -347.893982
-95.668289 -2431.885742 -354.467957
-94.024193 -2440.125732 -350.519958
-177.635986 -2413.285645 -355.009949
-161.355988 -2421.365723 -353.036987
-176.079987 -2415.645752 -354.130981
-144.071991 -2420.005615 -355.221985
-226.444000 -2405.165527 -353.403992
-208.507996 -2408.325684 -354.001953
-248.639999 -2406.245605 -350.466980
-220.947998 -2410.765625 -351.535950
-220.715988 -2386.925537 -360.953979
-224.063995 -2394.165527 -357.909973
-227.503998 -2389.085693 -359.408936
-226.416000 -2384.045654 -361.396973
-281.627991 -2380.645752 -357.021973
-293.839996 -2397.005615 -349.358948
-297.299988 -2379.925537 -355.701965
-310.699982 -2374.805664 -356.326965
-279.376007 -2389.885742 -353.643982
-247.411987 -2363.205566 -366.096985
-244.388000 -2375.445557 -362.670959
-234.167999 -2362.085693 -367.733948
-226.327988 -2365.445557 -367.475952
-293.903992 -2373.725586 -358.346985
-318.376007 -2365.325684 -358.661987
-315.052002 -2355.285645 -362.230957
-342.407990 -2345.645752 -362.791931
-235.727997 -2355.405762 -369.608948
-299.035980 -2366.245605 -360.174988
-262.371979 -2332.325684 -373.215942
-311.923981 -2344.085693 -365.907959
-238.787994 -2339.285645 -373.561951
-296.988007 -2339.525635 -368.365967
-236.459991 -2336.605713 -374.431946
-310.843994 -2328.205566 -370.153992
-312.735992 -2325.645752 -370.678955
-292.147980 -2333.565674 -370.310974
-311.071991 -2326.525635 -370.591980
-275.268005 -2323.405762 -374.455933
-335.259979 -2336.925537 -365.749939
-307.983978 -2315.685547 -373.553955
-251.875992 -2302.285645 -380.632935
-256.980011 -2304.725586 -379.747986
-296.123993 -2314.525635 -374.723938
-251.379990 -2301.085693 -380.912964
-290.759979 -2314.085693 -375.230957
-279.427979 -2292.525635 -380.828979
-268.399994 -2297.285645 -380.324951
-333.380005 -2304.325684 -374.095947
-50.736195 -2468.725586 -336.134949
-108.495995 -2463.045654 -335.242981
-120.583992 -2453.445557 -340.451965
-179.391998 -2447.405762 -337.704956
-172.528000 -2448.685547 -337.751953
-201.155991 -2445.445557 -336.166931
-264.511993 -2427.005615 -338.558960
-218.159988 -2443.845703 -334.926941
-274.815979 -2426.645752 -337.243958
-333.716003 -2427.005615 -327.810974
-308.147980 -2429.925537 -330.046936
-319.691986 -2419.605713 -334.234985
-366.923981 -2415.285645 -329.158936
-347.100006 -2411.485596 -334.226990
-370.227997 -2413.805664 -329.422974
-376.847992 -2415.325684 -327.358948
-392.059998 -2407.165527 -329.114990
-411.104004 -2409.365723 -324.162964
-418.195984 -2408.805664 -323.102966
-433.983978 -2420.485596 -312.618958
-435.247986 -2414.965576 -315.690979
-462.739990 -2397.525635 -320.074951
-473.799988 -2403.365723 -313.926941
-485.255981 -2410.405762 -306.386963
-464.135986 -2416.285645 -308.078979
-495.339996 -2412.925537 -302.006958
-509.320007 -2397.125732 -308.494934
-514.612000 -2409.685547 -298.606934
-518.212036 -2422.405762 -288.366943
-550.636047 -2402.725586 -291.798950
-547.044006 -2409.805664 -287.890991
-539.316040 -2402.165527 -296.050964
-550.908020 -2415.925537 -281.778992
-569.692017 -2402.965576 -284.838989
-545.304016 -2424.605713 -276.994934
-586.420044 -2411.805664 -270.542969
-584.644043 -2398.725586 -282.018982
-601.884033 -2403.085693 -271.002991
-608.257996 -2401.045654 -269.934937
-585.584045 -2423.765625 -260.406982
-606.165039 -2412.685547 -260.034973
-620.270996 -2409.805664 -255.046951
-628.621033 -2411.085693 -248.762955
-638.431030 -2407.805664 -245.586960
-653.900024 -2402.965576 -239.106949
-644.920044 -2418.485596 -226.070969
-659.453003 -2411.325684 -221.706955
-657.634033 -2419.125732 -210.230957
-678.973999 -2406.405762 -203.614960
-667.499023 -2417.125732 -197.358963
-676.347046 -2412.045654 -192.198959
-414.035980 -2164.045654 -393.699951
-437.147980 -2183.565674 -388.944946
-459.619995 -2183.285645 -387.412964
-301.587982 -2137.565674 -400.601990
-328.467987 -2163.885742 -397.067932
-282.940002 -2124.885742 -402.489990
-292.039978 -2157.965576 -398.840942
-354.203979 -2143.685547 -398.289978
-303.600006 -2150.125732 -399.266968
-285.891998 -2109.925537 -403.907959
-294.535980 -2130.845703 -401.509949
-337.531982 -2137.285645 -399.474976
-329.944000 -2157.845703 -397.635986
-325.503998 -2142.765625 -399.305969
-333.351990 -2133.525635 -399.990967
-341.335999 -2132.805664 -399.805969
-286.488007 -2107.845703 -404.100952
-274.815979 -2132.405762 -401.987976
-576.780029 -2074.885742 -399.412964
-605.801025 -2076.245605 -394.692932
-614.353027 -2069.525635 -394.731934
-536.076050 -2217.165527 -370.661987
-540.416016 -2219.925537 -369.126953
-545.004028 -2221.605713 -367.845947
-394.851990 -2058.485596 -408.476990
-376.755981 -2030.365601 -412.013977
-367.776001 -2045.125610 -410.153992
-382.503998 -2031.085693 -411.922974
-397.299988 -2057.685547 -408.578979
-357.703979 -2033.685669 -411.591980
-379.083984 -2047.765625 -409.825989
-353.695984 -2022.685669 -412.976990
-387.544006 -2030.925659 -411.942932
-958.075012 -1986.205688 -198.822968
-932.154053 -2034.485596 -220.398972
-939.371033 -2019.365601 -216.810959
-931.367004 -2029.165649 -225.854965
-917.507019 -2051.245605 -236.402969
-933.606995 -2005.005615 -236.862961
-920.879028 -2026.285645 -244.130966
-924.036011 -2024.485596 -240.926956
-932.445007 -2003.565674 -239.494949
-880.734009 -2050.645508 -279.114990
-883.451050 -2033.365601 -282.098938
-890.139038 -2049.205566 -270.594971
-899.082031 -2021.725586 -271.366943
-907.465027 -2033.765625 -257.310974
-904.952026 -2031.765625 -261.066956
-908.677002 -2007.885620 -266.326965
-914.973022 -2021.645630 -254.110947
-835.330994 -2037.085693 -317.350952
-847.355042 -2059.045654 -303.686951
-848.760010 -2051.125488 -304.878967
-853.927002 -2051.965576 -300.946960
-860.327026 -2045.165649 -297.746948
-862.590027 -2048.645508 -294.974976
-868.561035 -2038.565674 -293.058960
-885.169006 -2013.405640 -286.746948
-778.089050 -2056.365723 -344.812988
-776.024048 -2053.325684 -346.557983
-796.067017 -2031.285645 -341.086975
-759.013000 -2053.965576 -353.867981
-780.773010 -2023.085693 -350.818970
-758.445007 -2035.645630 -357.925964
-746.741028 -2060.965576 -357.753967
-759.268005 -2027.125610 -359.338989
-714.976013 -2072.685547 -367.395935
-724.559021 -2038.365601 -370.656982
-734.147034 -2042.565674 -366.315979
-741.249023 -2068.285645 -358.531982
-746.196045 -2034.565674 -363.486938
-650.855042 -2027.685669 -394.521973
-628.987000 -2025.205688 -399.965942
-637.337036 -2023.125610 -398.445984
-663.812012 -2031.765625 -390.807983
-668.038025 -2049.085693 -386.321960
-661.601013 -2047.605591 -388.315979
-670.411011 -2058.365723 -383.869934
-670.329041 -2028.085693 -389.791931
-673.468994 -2038.165649 -386.963989
-694.196045 -2031.485596 -382.191956
-689.941040 -2048.605469 -380.181946
-575.916016 -2027.325684 -408.364990
-563.316040 -2035.165649 -408.639954
-530.152039 -2041.365601 -409.471985
-525.268005 -2068.645752 -405.503967
-524.692017 -2047.405640 -408.864990
-518.388000 -2061.045654 -407.048950
-493.851990 -2069.365723 -406.246948
-516.460022 -2070.725586 -405.598938
-513.867981 -2054.885742 -408.066956
-510.003998 -2048.805664 -409.063965
-495.343994 -2032.965698 -411.505981
-491.243988 -2038.245605 -410.747986
-2.460237 -2069.165527 -409.338989
-23.680195 -2040.125610 -411.654968
-16.188194 -2050.925537 -410.792969
-33.088192 -2070.005615 -409.270935
-27.904194 -2078.725586 -408.574951
-53.816193 -2024.125610 -412.931946
-5.024204 -2092.365723 -407.486938
-13.200194 -2034.485596 -412.105957
-19.392195 -2048.205566 -411.009949
-61.208195 -2052.325684 -410.681946
-44.616192 -2067.045654 -409.505981
-77.492195 -2030.685669 -412.408936
-9.220244 -2060.565674 -410.022949
-73.332291 -2032.485596 -412.265991
-38.932194 -2069.045654 -409.347961
-147.371994 -2287.405762 -387.470947
-167.963989 -2270.525635 -388.954956
-138.143997 -2283.085693 -388.343933
-156.491989 -2263.205566 -390.289978
-159.863998 -2271.405762 -389.116943
-138.771988 -2259.685547 -391.345947
-152.639999 -2297.885742 -385.937988
-152.271988 -2299.205566 -385.780945
-134.399994 -2298.205566 -386.517944
-109.103996 -2303.205566 -386.510986
-65.048294 -2296.525635 -388.091980
-66.516190 -2306.645752 -386.773987
-24.588194 -2313.645752 -386.573975
-106.791992 -2302.765625 -386.605957
-84.696190 -2273.485596 -390.704956
-84.800194 -2275.485596 -390.447937
-119.447990 -2267.485596 -390.894958
-76.596191 -2278.165527 -390.239990
-55.332294 -2295.605713 -388.369934
-469.936005 -2251.965576 -371.317932
-504.671997 -2258.565674 -364.855957
-511.115997 -2252.445557 -365.533936
-476.027985 -2259.085693 -368.703979
-462.112000 -2260.885742 -370.396973
-435.664001 -2269.445557 -371.628967
-431.559998 -2255.005615 -375.342957
-429.799988 -2252.205566 -376.160950
-393.272003 -2278.285645 -374.652954
-417.264008 -2266.725586 -374.185974
-591.980042 -2246.005615 -351.730957
-605.891052 -2253.845703 -346.112976
-553.880005 -2252.845703 -357.644958
-544.788025 -2247.405762 -360.814941
-569.628052 -2240.765625 -358.147949
-523.460022 -2255.645752 -362.643982
-528.220032 -2248.365723 -363.595947
-508.035980 -2266.285645 -362.379944
-662.558044 -2229.125732 -338.273987
-676.071045 -2237.085693 -331.366943
-657.592041 -2243.565674 -335.018982
-745.630005 -2226.085693 -307.094971
-747.655029 -2243.725586 -298.258972
-752.513000 -2242.645752 -296.162964
-706.683044 -2231.965576 -321.830933
-705.760010 -2223.765625 -325.338989
-699.887024 -2241.285645 -321.394958
-691.399048 -2230.565674 -328.690979
-807.697998 -2216.965576 -269.674988
-793.434998 -2235.125732 -271.386963
-791.182007 -2220.605713 -281.458984
-790.388000 -2228.045654 -277.874939
-777.695007 -2238.685547 -281.746948
-838.287048 -2211.525635 -236.270950
-821.580994 -2225.965576 -247.482956
-819.289001 -2229.685547 -247.230972
-909.053040 -2105.605713 -193.434967
-892.835022 -2137.565674 -194.686966
-927.247009 -2064.965576 -195.218964
-796.536011 -2197.925537 -289.370972
-806.115051 -2187.485596 -287.346985
-809.262024 -2182.525635 -287.366943
-815.703003 -2199.365723 -273.290955
-831.463013 -2184.965576 -266.822937
-834.577026 -2194.285645 -256.938965
-845.066040 -2189.085693 -247.678970
-743.010010 -2198.205566 -319.070984
-727.899048 -2193.085693 -327.202942
-695.645020 -2218.285645 -331.502991
-697.447021 -2218.005615 -330.862976
-692.717041 -2209.365723 -335.322937
-666.908997 -2204.565674 -344.973938
-654.414001 -2216.805664 -344.854980
-660.351013 -2215.645752 -343.411987
-640.382019 -2213.445557 -349.978943
-610.176025 -2203.765625 -360.054932
-623.126038 -2219.365723 -352.323975
-782.213013 -2216.245605 -290.562988
-766.168030 -2215.205566 -300.142944
-760.322998 -2197.965576 -310.718933
-775.682007 -2207.445557 -298.094971
-787.288025 -2188.125732 -299.214966
-769.407043 -2189.085693 -309.170959
-798.649048 -2173.645752 -298.030945
-801.917053 -2172.645752 -296.502991
-821.780029 -2174.645752 -281.502991
-786.085022 -2130.605713 -321.110962
-807.892029 -2150.845703 -300.982971
-804.356995 -2150.805664 -303.106934
-771.016052 -2160.565674 -319.242981
-764.484009 -2174.965576 -317.478943
-768.891052 -2165.125732 -318.722961
-742.144043 -2173.845703 -327.722961
-749.958008 -2179.165527 -322.626953
-737.720032 -2176.885742 -328.634949
-723.019043 -2173.765625 -335.874939
-689.821045 -2183.645752 -344.410950
-713.716003 -2167.165527 -341.711975
-708.830994 -2183.565674 -338.298950
-655.356995 -2197.845703 -350.749939
-653.851013 -2191.725586 -353.177979
-685.529053 -2189.125732 -344.026978
-621.225037 -2183.805664 -363.354980
-643.299011 -2178.445557 -359.636963
-629.203003 -2182.725586 -361.764954
-598.208008 -2186.965576 -367.897949
-606.579041 -2199.005615 -362.319946
-626.479004 -2193.285645 -359.295959
-570.723999 -2189.805664 -371.992981
-556.684021 -2185.525635 -375.611938
-583.996033 -2180.365723 -372.319946
-896.353027 -2117.245605 -221.970963
-878.691040 -2153.285645 -220.814957
-890.302002 -2122.685547 -229.866959
-863.512024 -2174.445557 -230.490952
-878.421021 -2142.965576 -233.258957
-879.639038 -2134.245605 -239.398972
-884.479004 -2118.925537 -243.990952
-876.565002 -2124.245605 -251.386948
-884.452026 -2113.365723 -247.990952
-856.760010 -2121.885742 -274.706970
-822.759033 -2130.485596 -298.834961
-826.261047 -2140.885742 -292.322937
-827.790039 -2139.165527 -291.814941
-837.180054 -2135.965576 -285.614990
-819.278015 -2153.365723 -292.686951
-847.721008 -2126.725586 -280.986938
-848.541016 -2131.045654 -278.174988
-837.997009 -2169.405762 -269.266968
-866.335999 -2143.845703 -252.450974
-854.839050 -2168.525635 -250.490952
-865.316040 -2156.325684 -244.998947
-857.692993 -2173.645752 -242.238968
-861.216003 -2172.965576 -236.998947
-834.894043 -2222.405762 -228.702957
-747.388000 -2086.845703 -351.466980
-752.388000 -2111.685547 -342.631958
-756.781006 -2088.365723 -346.964966
-744.612000 -2105.565674 -347.562988
-754.727051 -2131.205566 -336.362976
-735.572021 -2108.605713 -350.455933
-737.106995 -2086.085693 -355.897949
-721.494019 -2081.205566 -363.027954
-722.697021 -2080.085693 -362.877991
-698.808044 -2114.685547 -361.630981
-699.840027 -2119.125732 -360.061951
-692.257019 -2111.525635 -364.671936
-718.840027 -2124.205566 -352.375977
-715.716003 -2103.925537 -359.018982
-709.485046 -2126.485596 -354.841980
-650.184998 -2093.765625 -381.322937
-639.129028 -2109.765625 -379.707947
-652.343018 -2124.845703 -372.489990
-616.039001 -2137.845703 -377.750977
-653.442993 -2112.365723 -375.560974
-652.789001 -2107.965576 -376.901978
-677.979004 -2083.165527 -376.743958
-656.182007 -2086.445557 -381.718933
-665.890015 -2124.765625 -369.223938
-681.373047 -2097.565674 -371.922974
-673.526001 -2119.685547 -368.483948
-697.957031 -2080.085693 -371.328979
-709.389038 -2074.845703 -368.892944
-707.135010 -2047.125610 -375.172974
-689.454041 -2066.285645 -376.918945
-717.933044 -2034.845703 -373.807983
-546.520020 -2049.285645 -407.716980
-544.628052 -2066.725586 -404.614990
-550.912048 -2053.485596 -406.904968
-614.085022 -2053.005615 -398.082947
-556.220032 -2073.325684 -402.807983
-617.973022 -2050.485596 -397.988953
-567.028015 -2040.525635 -407.409973
-572.688049 -2039.045654 -406.834961
-568.156006 -2040.085693 -407.321960
-616.361023 -2040.365601 -399.936951
-619.082031 -2040.965698 -399.385986
-947.222046 -2018.525635 -191.082962
-924.850037 -2066.565674 -202.974960
-927.861023 -2058.765625 -204.950958
-905.851013 -2109.085693 -202.786957
-883.449036 -2152.125732 -206.826965
-869.869995 -2180.045654 -196.058960
-873.789001 -2170.445557 -206.174957
-858.789001 -2198.445557 -198.418961
-849.895020 -2212.245605 -200.630966
-917.442993 -2068.685547 -222.658951
-904.904053 -2102.645752 -218.358963
-917.572998 -2056.925537 -232.414963
-908.429016 -2073.125732 -236.674973
-904.848022 -2069.325684 -244.586960
-898.050049 -2081.645752 -247.262955
-902.408997 -2069.645752 -247.982956
-893.509033 -2084.725586 -251.262955
-885.598999 -2108.005615 -249.286972
-882.595032 -2091.405762 -261.198975
-881.087036 -2068.325684 -272.726990
-882.417053 -2067.845703 -271.614990
-867.287048 -2093.165527 -276.206970
-865.411011 -2092.285645 -278.346985
-857.917053 -2084.525635 -287.674988
-858.356018 -2088.725586 -285.890991
-835.123047 -2118.885742 -293.986938
-840.651001 -2111.765625 -292.090942
-827.813049 -2102.005615 -304.538940
-844.007019 -2082.725586 -299.318970
-813.990051 -2115.885742 -309.318970
-823.910034 -2089.045654 -311.102966
-818.046997 -2109.565674 -308.622986
-800.751038 -2077.765625 -328.282959
-814.130005 -2100.525635 -313.882935
-805.762024 -2083.925537 -323.562988
-790.264038 -2108.845703 -325.166931
-800.864014 -2098.925537 -322.106934
-801.218994 -2093.125732 -323.602966
-944.851013 -2016.405640 -206.170959
-937.492004 -2030.285645 -211.946976
-927.039001 -2052.685547 -216.106949
-919.205017 -2071.325684 -215.598953
-900.921997 -2113.805664 -213.586960
-892.562012 -2129.725586 -214.734970
-852.536011 -2202.525635 -216.334976
-625.800049 -2047.325684 -396.899963
-638.731018 -2069.885742 -389.629944
-640.058044 -2079.085693 -387.423950
-626.580017 -2089.445557 -387.817932
-638.170044 -2083.205566 -386.843933
-628.523010 -2086.965576 -388.017944
-627.360046 -2098.685547 -385.300964
-591.900024 -2099.965576 -391.294983
-595.592041 -2085.485596 -394.239990
-591.952026 -2124.925537 -385.219971
-591.004028 -2114.005615 -388.023987
-590.332031 -2112.005615 -388.609985
-605.710999 -2101.085693 -388.887939
-561.440002 -2108.565674 -394.046936
-560.936035 -2127.845703 -389.622986
-563.680054 -2115.165527 -392.140991
-560.671997 -2138.925537 -387.081970
-574.872009 -2123.165527 -388.427979
-555.080017 -2139.485596 -387.868958
-530.080017 -2113.325684 -396.355957
-531.340027 -2100.805664 -399.025940
-538.768005 -2089.205566 -401.085938
-534.700012 -2115.765625 -395.520935
-532.828003 -2143.885742 -389.737976
-512.944031 -2135.325684 -393.453979
-515.104004 -2107.325684 -399.034973
-507.735992 -2088.685547 -402.857971
-507.388000 -2090.725586 -402.459961
-507.035980 -2135.605713 -393.640991
-493.519989 -2091.965576 -402.506958
-17.672194 -2290.645752 -389.202942
-38.320194 -2293.405762 -388.845947
-10.144195 -2264.565674 -391.935974
-2.584200 -2293.285645 -388.978943
-28.136194 -2301.005615 -388.089966
-24.172195 -2262.205566 -392.132935
-27.560194 -2279.245605 -390.351990
-23.112194 -2259.245605 -392.441956
-16.740194 -2275.245605 -390.802979
-21.124195 -2284.125732 -389.865967
-53.404194 -2229.485596 -395.427979
-51.972195 -2217.525635 -396.674988
-56.428192 -2240.125732 -394.312988
-39.032192 -2240.845703 -394.298950
-56.588192 -2246.085693 -393.692932
-81.764191 -2251.165527 -393.082947
-46.008194 -2218.885742 -396.553955
-74.408195 -2224.165527 -395.909973
-67.268196 -2244.845703 -393.784973
-20.332294 -2252.885742 -393.114990
-40.840195 -2220.405762 -396.413940
-94.092194 -2249.685547 -393.191956
-104.559990 -2238.405762 -394.328979
-110.095993 -2224.205566 -395.636963
-46.708195 -2195.925537 -398.799988
-95.228195 -2182.925537 -399.665955
-129.947998 -2210.885742 -396.750977
-83.024193 -2196.765625 -398.445984
-97.320190 -2230.965576 -395.092957
-114.803993 -2222.845703 -395.730957
-106.359993 -2217.485596 -396.301941
-64.232193 -2202.165527 -398.075989
-72.232193 -2208.285645 -397.431946
-123.775993 -2245.525635 -393.507935
-57.456192 -2200.485596 -398.285950
-94.632195 -2203.365723 -397.729980
-10.316195 -2182.885742 -400.205933
-4.264194 -2170.485596 -401.235962
-52.972195 -2137.725586 -403.542969
-30.732195 -2136.405762 -403.789978
-9.572234 -2123.725586 -404.934937
-132.467987 -2179.165527 -399.735962
-54.280293 -2142.605713 -403.145935
-4.800204 -2180.205566 -400.455933
-9.868195 -2127.005615 -404.669983
-9.624234 -2173.125732 -400.989990
-28.044195 -2180.245605 -400.307983
-50.296192 -2143.525635 -403.095947
-46.000195 -2157.125732 -402.039978
-96.292191 -2182.205566 -399.718933
-34.884293 -2186.005615 -399.803955
-27.492195 -2138.045654 -403.678955
-31.320194 -2178.765625 -400.402954
-422.324005 -2204.085693 -386.181946
-411.500000 -2196.845703 -388.387939
-426.455994 -2203.205566 -385.970947
-441.975983 -2193.525635 -386.759949
-462.735992 -2204.885742 -382.894958
-463.936005 -2200.845703 -383.635986
-422.167999 -2198.245605 -387.265991
-485.552002 -2213.765625 -378.329956
-470.783997 -2213.445557 -380.181946
-471.407990 -2213.725586 -380.046936
-327.992004 -2170.045654 -396.407959
-298.955994 -2185.205566 -395.696960
-280.932007 -2179.245605 -396.945984
-360.268005 -2165.885742 -395.807983
-279.471985 -2196.365723 -395.111938
-322.671997 -2166.285645 -396.995972
-286.687988 -2185.045654 -396.116943
-377.179993 -2169.485596 -394.773987
-390.343994 -2172.485596 -393.675964
-323.027985 -2197.925537 -392.904968
-288.880005 -2198.565674 -394.430969
-388.851990 -2175.725586 -393.238953
-291.459991 -2197.845703 -394.418945
-310.627991 -2193.965576 -394.115967
-303.475983 -2212.045654 -392.033936
-293.007996 -2216.565674 -391.943970
-293.407990 -2207.645752 -393.021973
-277.299988 -2204.005615 -394.190979
-309.548004 -2204.005615 -392.748962
-331.639984 -2210.965576 -390.905945
-309.463989 -2222.005615 -390.461975
-391.287994 -2223.205566 -385.471985
-389.983978 -2206.485596 -388.345947
-360.376007 -2225.245605 -386.943970
-311.127991 -2219.845703 -390.725952
-362.511993 -2205.485596 -390.121948
-337.048004 -2230.205566 -387.516968
-282.183990 -2238.725586 -389.386963
-285.035980 -2246.005615 -388.197937
-344.608002 -2235.365723 -386.358948
-286.859985 -2242.285645 -388.621948
-347.152008 -2229.165527 -387.091980
-258.911987 -2263.285645 -387.216980
-509.940002 -2237.485596 -369.405945
-504.475983 -2219.645752 -374.562988
-514.000000 -2223.765625 -372.356934
-457.496002 -2239.405762 -376.005981
-479.332001 -2225.045654 -376.310974
-467.216003 -2221.685547 -378.709961
-413.531982 -2226.765625 -382.811951
-430.615997 -2220.805664 -382.524963
-449.867981 -2239.005615 -376.895935
-426.983978 -2246.245605 -377.667969
-411.764008 -2243.045654 -379.812988
-392.343994 -2237.085693 -382.904968
-280.820007 -2260.965576 -386.196960
-384.716003 -2238.205566 -383.261963
-323.295990 -2258.565674 -383.755981
-352.112000 -2248.365723 -383.641968
-340.276001 -2250.445557 -384.067932
-306.011993 -2251.045654 -386.276978
-366.031982 -2279.405762 -376.687988
-355.475983 -2273.005615 -378.686951
-303.575989 -2267.125732 -383.453979
-354.115997 -2273.605713 -378.665955
-338.600006 -2265.525635 -381.342957
-316.951996 -2265.925537 -382.759949
-313.911987 -2277.725586 -380.950989
-362.720001 -2282.685547 -376.498962
-325.268005 -2283.845703 -379.333984
-260.003998 -2271.845703 -385.744934
-253.699997 -2271.325684 -386.208984
-283.515991 -2280.885742 -382.786987
-243.071991 -2287.205566 -384.095947
-237.888000 -2272.925537 -386.568970
-169.159988 -2248.085693 -392.015991
-238.591995 -2244.845703 -390.435974
-199.155991 -2242.885742 -391.859985
-243.619995 -2237.845703 -391.257935
-245.123993 -2239.165527 -391.029968
-201.291992 -2259.605713 -389.475952
-174.123993 -2257.605713 -390.545959
-156.147995 -2256.325684 -391.252991
-202.287994 -2246.565674 -391.253967
-216.719986 -2253.805664 -389.831970
-189.483994 -2276.605713 -387.463989
-208.391998 -2230.725586 -393.085938
-262.835999 -2204.285645 -394.763977
-178.959991 -2239.925537 -392.791931
-238.707993 -2232.765625 -392.012939
-234.607986 -2220.325684 -393.615967
-215.767990 -2226.925537 -393.341980
-187.715988 -2242.245605 -392.276978
-189.007996 -2221.405762 -394.580933
-194.723999 -2214.365723 -395.143982
-145.127991 -2191.005615 -398.369934
-185.091995 -2189.205566 -397.752991
-235.091995 -2205.285645 -395.218933
-185.000000 -2191.005615 -397.583984
-136.479996 -2228.965576 -394.891968
-180.263992 -2212.765625 -395.583984
-168.919998 -2186.445557 -398.339966
-163.515991 -2236.205566 -393.662964
-166.663986 -2223.925537 -394.780945
-165.195999 -2191.365723 -397.939941
-170.979996 -2213.685547 -395.680969
-171.827988 -2203.925537 -396.601990
-264.523987 -2179.925537 -397.343933
-177.299988 -2178.805664 -399.006958
-254.359985 -2189.685547 -396.472961
-248.303986 -2178.365723 -397.800964
-156.051987 -2179.885742 -399.267944
-247.731995 -2189.645752 -396.594971
-241.143997 -2188.805664 -396.801941
-117.739990 -2142.765625 -402.325989
-24.996294 -2116.725586 -405.350952
-130.199997 -2161.845703 -400.903992
-160.163986 -2163.645752 -400.359985
-141.867996 -2172.405762 -400.047974
-120.167992 -2153.725586 -401.576965
-159.791992 -2145.845703 -401.524963
-87.192192 -2133.205566 -403.387939
-130.519989 -2138.005615 -402.454956
-190.919998 -2174.685547 -399.197937
-140.303986 -2149.565674 -401.560974
-163.019989 -2161.965576 -400.427979
-73.544189 -2128.285645 -403.902954
-75.440193 -2138.685547 -403.195984
-122.871994 -2165.885742 -400.743958
-14.992195 -2110.365723 -405.907959
-15.480195 -2113.525635 -405.695984
-36.768192 -2107.485596 -406.045959
-188.000000 -2135.285645 -402.295959
-230.059998 -2114.525635 -404.068970
-178.911987 -2145.685547 -401.329956
-220.127991 -2137.925537 -401.824951
-273.311981 -2134.165527 -401.841980
-245.855988 -2118.205566 -403.599976
-190.183990 -2126.485596 -403.149963
-171.143997 -2112.525635 -404.657959
-196.983994 -2148.885742 -400.895935
-241.135986 -2114.005615 -404.045959
-213.791992 -2104.365723 -405.179932
-161.883987 -2143.525635 -401.655945
-161.435989 -2118.525635 -404.128967
-27.152195 -2112.605713 -405.605957
-191.747986 -2113.125732 -404.460938
-217.687988 -2134.645752 -402.161987
-211.983994 -2130.325684 -402.629944
-213.619995 -2123.845703 -403.257935
-96.688194 -2111.605713 -405.241943
-165.679993 -2129.085693 -403.057983
-145.603989 -2120.845703 -404.004944
-267.367981 -2099.645752 -405.289978
-236.383987 -2113.405762 -404.134949
-255.859985 -2100.085693 -405.322937
-224.427994 -2126.965576 -402.876953
-216.767990 -2106.325684 -404.965942
-239.627991 -2117.845703 -403.674988
-272.343994 -2126.925537 -402.563965
-151.500000 -2124.005615 -403.651978
-125.875992 -2107.365723 -405.467957
-206.483994 -2064.885742 -408.766968
-70.684196 -2071.845703 -408.987976
-24.600195 -2092.805664 -407.429932
-164.843994 -2099.565674 -405.975952
-221.579987 -2079.685547 -407.373962
-159.995987 -2097.485596 -406.189941
-146.944000 -2038.085693 -411.484985
-201.472000 -2091.045654 -406.499939
-80.700195 -2095.765625 -406.825989
-205.107986 -2074.685547 -407.914978
-112.595993 -2047.925659 -410.831970
-116.915993 -2098.965576 -406.322937
-94.232193 -2054.285645 -410.385986
-45.824192 -2105.045654 -406.221985
-75.200195 -2061.045654 -409.907959
-203.007996 -2076.765625 -407.743958
-120.627991 -2027.005615 -412.621948
-229.311996 -2078.205566 -407.456970
-154.455994 -2097.045654 -406.259949
-97.400192 -2082.725586 -407.869934
-224.203995 -2084.245605 -406.957947
-121.471992 -2044.445679 -411.083984
-105.595993 -2072.725586 -408.696960
-140.263992 -2091.125732 -406.867981
-185.747986 -2078.765625 -407.676941
-106.971992 -2040.645630 -411.505981
-61.032192 -2095.925537 -406.930969
-155.215988 -2054.685547 -409.975952
-106.915993 -2101.565674 -406.154968
-149.000000 -2094.765625 -406.495972
-89.724190 -2082.125732 -407.967957
-144.343994 -2044.085693 -410.976990
-128.759995 -2063.165527 -409.392944
-140.291992 -2092.805664 -406.720947
-263.959991 -2082.165527 -406.977966
-202.056000 -2050.045654 -410.237976
-243.163986 -2048.645508 -410.377991
-252.043991 -2076.885742 -407.513977
-212.487991 -2027.685669 -412.502991
-262.768005 -2063.725586 -408.847961
-168.183990 -2035.925659 -411.671936
-155.023987 -2035.725586 -411.692932
-265.759979 -2022.125610 -413.063965
-216.107986 -2029.165649 -412.352966
-189.223999 -2027.685669 -412.505981
-232.627991 -2058.605713 -409.366943
-219.047989 -2027.085693 -412.564941
-261.115997 -2050.885498 -410.149963
-230.643997 -2033.125610 -411.950989
-170.388000 -2044.165649 -410.837952
-265.056000 -2058.925537 -409.332947
-243.719986 -2027.645630 -412.507935
-235.631989 -2058.485596 -409.381958
-314.895996 -2029.525635 -412.311951
-296.940002 -2032.125610 -412.046936
-302.755981 -2028.925659 -412.370972
-300.811981 -2059.605713 -409.263977
-287.243988 -2062.765625 -408.940979
-309.768005 -2021.885620 -413.086975
-389.359985 -2081.525635 -405.805969
-380.903992 -2079.605713 -406.125977
-365.388000 -2070.765625 -407.292969
-303.544006 -2083.885742 -406.591980
-392.388000 -2069.645752 -407.087952
-373.884003 -2073.525635 -406.882935
-357.351990 -2085.805664 -405.723938
-319.015991 -2081.365723 -406.682983
-321.695984 -2070.405762 -407.865967
-378.279999 -2059.685547 -408.367981
-308.828003 -2056.085693 -409.610962
-402.419983 -2084.925537 -405.271973
-360.427979 -2071.525635 -407.267944
-321.143982 -2078.765625 -406.943970
-350.048004 -2099.965576 -403.989990
-364.723999 -2109.805664 -402.419983
-375.183990 -2120.925537 -400.725952
-347.768005 -2093.645752 -404.903992
-330.579987 -2105.645752 -403.456970
-397.519989 -2110.685547 -401.853943
-397.867981 -2102.445557 -402.998962
-320.500000 -2110.005615 -402.983948
-384.339996 -2137.485596 -398.291931
-388.463989 -2140.205566 -397.855957
-328.324005 -2118.765625 -401.655945
-353.432007 -2120.645752 -401.054932
-377.315979 -2142.205566 -397.728943
-294.079987 -2101.645752 -404.506958
-454.311981 -2135.205566 -396.017944
-420.631989 -2097.245605 -403.203979
-428.320007 -2103.805664 -401.868958
-470.708008 -2147.605713 -393.387939
-410.759979 -2147.645752 -396.453979
-433.463989 -2149.205566 -395.065979
-456.011993 -2145.765625 -394.407959
-450.600006 -2156.125732 -393.124939
-449.919983 -2159.645752 -392.473938
-466.239990 -2184.005615 -386.830933
-484.888000 -2177.445557 -386.440979
-499.268005 -2166.165527 -387.283936
-485.615997 -2161.805664 -389.552979
-508.500000 -2175.965576 -384.352966
-490.479980 -2183.805664 -384.580933
-495.891998 -2189.765625 -382.525940
-523.564026 -2188.965576 -379.815979
-565.552002 -2195.725586 -371.265991
-581.576050 -2202.685547 -366.543945
-567.132019 -2206.005615 -368.217957
-577.900024 -2228.165527 -360.155945
-544.716003 -2212.205566 -370.499939
-572.144043 -2214.805664 -364.892944
-621.076050 -2222.965576 -351.737976
-602.658997 -2213.765625 -358.858948
-612.158997 -2224.125732 -353.494934
-606.743042 -2234.805664 -351.571960
-603.668030 -2245.565674 -349.078979
-596.324036 -2238.405762 -352.951965
-633.681030 -2248.765625 -340.664978
-643.957031 -2237.365723 -341.402954
-451.587982 -2039.085693 -410.933960
-469.731995 -2027.325684 -412.414978
-462.048004 -2034.845703 -411.470947
-466.079987 -2021.685669 -413.126953
-427.683990 -2051.605469 -409.352966
-455.479980 -2025.525635 -412.641968
-433.552002 -2059.045654 -408.417969
-482.703979 -2055.125732 -408.394958
-459.608002 -2067.285645 -407.025940
-481.376007 -2059.725586 -407.748962
-480.695984 -2075.205566 -405.524963
-458.716003 -2077.285645 -405.598938
-467.967987 -2080.805664 -404.928955
-479.407990 -2034.405640 -411.447937
-436.199982 -2108.725586 -400.799988
-455.216003 -2104.925537 -401.117981
-476.615997 -2129.285645 -396.470947
-448.683990 -2112.445557 -399.921936
-464.467987 -2124.125732 -397.592957
-443.503998 -2109.645752 -400.503967
-462.667999 -2136.085693 -395.539978
-481.959991 -2151.125732 -392.291931
-492.863983 -2141.405762 -393.355957
-482.691986 -2144.725586 -393.403992
-489.395996 -2100.565674 -400.932983
-525.160034 -2174.965576 -382.882935
-502.604004 -2160.845703 -388.312988
-527.200012 -2153.565674 -388.117981
-518.892029 -2158.325684 -387.782959
-552.652039 -2177.645752 -378.483948
-544.728027 -2164.085693 -383.382935
-549.788025 -2159.725586 -383.645935
-599.660034 -2159.725586 -375.222961
-601.494995 -2151.685547 -377.090942
-591.748047 -2157.525635 -377.142944
-620.689026 -2152.365723 -372.583984
-627.097046 -2162.725586 -368.073975
-619.911011 -2166.565674 -368.696960
-627.080994 -2152.165527 -371.107971
-659.139038 -2143.725586 -365.747986
-654.513000 -2144.645752 -366.607971
-682.793030 -2167.165527 -351.701965
-697.182007 -2154.885742 -350.802979
-693.553040 -2165.965576 -348.583984
-700.322998 -2141.925537 -353.535950
-698.655029 -2141.245605 -354.273987
-706.957031 -2143.725586 -350.814941
-742.210999 -2149.085693 -335.646973
-760.140015 -2153.485596 -326.454956
-729.894043 -2140.485596 -343.742981
-746.207031 -2136.605713 -338.148987
-778.664001 -2136.805664 -323.158936
-764.426025 -2142.805664 -328.166931
-775.195007 -2103.685547 -334.302979
-769.273010 -2130.605713 -329.606934
-787.723022 -2082.285645 -333.854980
-776.973022 -2097.725586 -335.066956
-783.407043 -2098.165527 -331.686951
-797.737000 -2066.765625 -332.614990
-788.703003 -2053.805664 -339.915955
-804.098999 -2046.005615 -333.826965
-811.062012 -2029.885620 -333.526978
-803.280029 -2066.645752 -329.602966
-819.494019 -2038.605591 -326.790955
-826.863037 -2022.445679 -326.018982
-820.371033 -2035.045654 -327.082947
-833.151001 -2021.765625 -322.314941
727.719971 -646.628601 326.025024
725.675964 -648.396606 325.801025
794.007996 -777.784607 331.969055
796.847961 -760.128601 331.193054
723.423950 -771.172607 330.969055
723.559998 -775.252563 331.157043
721.823975 -826.256592 333.113037
733.667969 -956.476562 337.553040
731.727966 -976.880554 337.849060
724.927979 -891.240601 335.497009
725.388000 -1006.795593 338.377014
726.679993 -1016.065613 338.665039
718.563965 -1010.685608 338.293030
718.331970 -968.680603 337.121033
756.915955 -994.296570 338.473022
752.083984 -1000.472595 338.681030
810.755981 -1020.645569 332.093018
838.087952 -1005.032593 323.921021
859.440002 -981.676575 314.441040
842.751953 -992.456604 322.149048
870.427979 -1016.725586 307.569031
866.799988 -1002.224609 309.953064
869.075989 -1007.655579 308.553040
861.063965 -980.356567 313.525024
888.563965 -995.916565 294.341034
881.711975 -967.740601 300.001038
876.500000 -970.124573 303.929016
876.251953 -986.656555 303.989014
894.863953 -993.760559 288.557037
894.395996 -983.604553 289.085022
899.011963 -1003.336609 284.441040
911.403992 -1025.495605 270.061035
910.035950 -986.532593 272.277039
906.216003 -992.420593 276.681030
914.287964 -1025.555664 266.373047
917.507996 -970.888611 262.401031
922.407959 -983.512573 255.185043
930.099976 -979.940613 242.213043
925.419983 -1005.355591 250.061035
928.367981 -977.708557 245.221039
938.683960 -995.792603 224.733032
931.519958 -963.504578 239.773041
936.919983 -983.896606 228.533035
935.055969 -1005.965576 232.257034
941.831970 -960.800598 216.605042
941.067993 -989.372559 218.533035
942.295959 -1024.295654 215.597046
951.007996 -989.804565 186.553040
950.071960 -997.664612 190.065033
948.259949 -1024.075562 196.729034
950.815979 -968.272583 187.293045
948.375977 -961.036560 196.269043
944.227966 -1017.575562 210.113037
943.519958 -1008.725586 212.293045
953.371948 -969.788574 175.609039
952.823975 -982.600586 178.121033
953.083984 -981.404602 176.881042
953.619995 -1029.395630 174.341034
957.947998 -1020.515564 150.189041
957.955994 -1030.225586 149.689041
957.492004 -992.736572 153.353027
958.015991 -993.788574 150.037048
955.707947 -1002.524597 163.677032
963.303955 -997.824585 110.308838
963.207947 -1012.765564 110.028839
963.207947 -990.332581 111.668839
960.479980 -994.796570 133.804840
960.915955 -980.016602 130.944839
961.127991 -967.568604 129.776840
960.423950 -1009.605591 133.588837
967.699951 -1009.945557 58.608841
967.419983 -1017.905579 61.336838
968.167969 -985.076599 55.960838
966.440002 -997.424561 75.160843
965.315979 -1013.695557 87.156837
966.559998 -1004.076599 73.320839
965.311951 -991.632568 88.692841
966.203979 -1011.225586 76.964844
966.799988 -982.608582 71.988838
964.203979 -993.100586 101.356842
964.067993 -1017.725586 100.964844
963.735962 -982.032593 107.520844
972.880005 -982.804565 -59.966965
972.395996 -1025.555664 -61.774963
972.683960 -998.224609 -59.026962
970.992004 -1026.655640 -9.271160
970.503967 -1010.005554 5.856838
970.895996 -996.868591 1.088840
970.731995 -986.104553 6.724838
970.179993 -991.820557 16.316839
970.391968 -1039.805664 1.324841
970.831970 -986.464600 4.712837
969.083984 -1000.852600 36.028828
968.867981 -1013.985596 38.256847
969.279968 -1016.925598 28.916840
968.823975 -988.000610 43.892838
968.783997 -1005.665588 41.620869
972.947998 -989.716614 -77.182961
973.095947 -976.116577 -76.542961
973.011963 -981.772583 -71.638962
973.647949 -929.504578 -82.458961
973.771973 -924.832581 -99.798965
972.819946 -1005.475586 -89.770966
972.643982 -1014.095581 -70.822960
973.815979 -916.396606 -87.482956
972.507996 -1026.395630 -71.178963
972.783997 -1005.805603 -81.306961
973.087952 -976.916565 -76.154961
972.351990 -1043.045654 -78.402962
973.115967 -991.664612 -104.070969
972.807983 -1013.095581 -94.090958
972.727966 -1024.275635 -95.206955
972.440002 -1043.015625 -85.142960
972.519958 -1040.075684 -89.518967
972.975952 -993.752563 -94.770966
972.507996 -1051.595703 -150.878967
972.907959 -971.672607 -160.094955
972.651978 -1021.945557 -154.834961
972.527954 -1050.565674 -149.138962
972.664001 -1024.485596 -150.806961
972.639954 -1016.115601 -161.926956
972.475952 -1041.725586 -164.342957
972.771973 -1003.196594 -148.126968
972.515991 -1064.125610 -133.874954
973.559998 -936.464600 -133.398956
973.371948 -924.960571 -152.538956
972.815979 -998.664612 -147.122955
973.295959 -943.460571 -146.986954
973.199951 -976.316589 -134.386963
973.371948 -971.812561 -125.654968
973.475952 -922.968567 -146.666962
973.339966 -930.308594 -151.478958
973.179993 -964.344604 -142.642960
972.959961 -964.096558 -157.206955
973.380005 -919.868591 -154.762955
972.735962 -1021.875610 -139.166962
973.579956 -954.652588 -121.254959
972.631958 -1051.405640 -121.222961
973.380005 -974.304565 -118.306961
973.315979 -980.128601 -114.958954
972.843994 -1026.955566 -108.790955
972.839966 -1029.415649 -118.294968
972.539978 -1061.405640 -123.534958
972.023987 -1041.235596 -193.042969
971.975952 -1048.395630 -193.982956
972.143982 -1013.955566 -191.918961
972.259949 -978.232605 -192.838959
972.527954 -960.352600 -184.570969
972.291992 -1038.115601 -178.966965
973.095947 -923.760559 -171.746964
972.815979 -934.864563 -179.270966
972.567993 -960.080566 -183.322968
972.495972 -1021.135559 -173.586960
972.915955 -957.556580 -170.710968
972.227966 -1068.965698 -172.278961
971.839966 -1046.575684 -200.066956
972.123962 -950.136597 -200.166962
971.947998 -1023.935608 -199.146957
971.707947 -1011.485596 -207.934967
971.723999 -1010.395569 -207.242966
971.631958 -1063.355591 -207.102966
973.083984 -603.876587 -195.970963
974.635986 -540.456604 -173.614960
974.699951 -534.388611 -172.990967
973.471985 -587.308594 -190.438965
975.239990 -560.600586 -161.722961
974.552002 -570.404602 -172.954956
974.711975 -521.924561 -173.646957
973.331970 -599.268555 -192.018967
975.307983 -489.832611 -165.642960
975.083984 -522.632568 -167.166962
973.351990 -532.132568 -195.334961
974.104004 -461.992615 -186.254959
973.656006 -481.276611 -192.622955
973.743958 -529.504578 -189.186966
974.607971 -505.916626 -176.258957
974.975952 -464.264618 -172.058960
973.940002 -498.048615 -187.306961
974.099976 -538.812561 -183.034958
972.891968 -468.164612 -203.162964
973.003967 -490.016602 -201.342957
973.019958 -499.232605 -200.950958
977.164001 -521.348572 -120.282959
976.276001 -582.396606 -131.490967
975.880005 -584.312561 -143.210968
976.847961 -552.292603 -121.862961
976.947998 -586.336609 -109.666962
977.164001 -537.280579 -116.054962
976.959961 -540.328613 -121.610962
977.107971 -508.020599 -125.610962
976.863953 -556.572571 -120.182968
976.451965 -591.464600 -123.658966
976.903992 -566.260559 -116.338959
976.815979 -542.684570 -125.334961
977.276001 -468.488617 -126.962967
975.768005 -545.312561 -153.126968
977.127991 -490.600616 -127.606964
975.631958 -561.464600 -154.198959
976.932007 -480.032623 -133.742966
975.803955 -538.724609 -153.110962
975.863953 -528.984558 -152.954956
975.811951 -559.508606 -150.114960
975.963989 -544.448608 -148.498962
975.631958 -536.396606 -156.778961
975.943970 -511.312622 -153.386963
978.479980 -471.156616 -42.311165
978.087952 -509.652618 -44.679161
978.615967 -466.732605 -61.346962
978.000000 -524.824585 -61.030960
977.995972 -519.984558 -49.087158
977.911987 -528.668579 -50.791161
978.039978 -517.872559 -53.819160
978.399963 -486.796600 -60.850960
976.935974 -604.564575 -100.278961
977.191956 -586.040588 -89.698959
977.328003 -573.344604 -93.970963
977.123962 -600.948608 -60.318962
978.347961 -491.860626 -78.502960
977.115967 -596.224609 -78.046959
977.299988 -574.316589 -98.686966
977.487976 -569.404602 -62.342964
977.544006 -555.928589 -91.166962
977.407959 -569.232605 -85.434967
978.087952 -512.572571 -82.634964
977.627991 -554.172607 -73.822960
977.791992 -509.024628 -101.202957
978.388000 -467.744629 -88.218964
978.171997 -491.600616 -89.078964
977.943970 -514.672607 -91.030960
977.915955 -512.336609 -93.514969
978.015991 -504.708618 -91.566956
977.083984 -584.500610 -105.438965
977.716003 -504.344604 -107.038956
978.407959 -468.992615 -35.099159
977.927979 -501.536621 -33.171158
978.095947 -464.412628 -22.779160
977.843994 -507.380615 -32.831161
978.363953 -472.532623 -35.147163
977.691956 -466.964600 -10.419163
977.819946 -515.048584 -35.279160
975.612000 -600.144592 1.816837
976.923950 -548.444580 -19.755165
977.104004 -497.392609 -3.827160
975.847961 -582.768555 1.444839
976.299988 -572.100586 -9.155163
977.187988 -574.516602 -39.775162
976.863953 -557.668579 -21.707161
976.959961 -519.840576 -8.643162
976.959961 -535.612610 -15.443161
977.159973 -562.356567 -33.623161
976.399963 -550.216614 -2.979160
976.759949 -570.124573 -23.583160
975.612000 -589.568604 5.236839
977.091980 -478.260620 0.168839
977.123962 -468.604614 1.464840
973.667969 -592.616577 32.024837
974.311951 -598.804565 22.092838
973.544006 -598.484558 33.016838
972.875977 -516.756592 53.232868
972.559998 -585.680603 48.604809
972.091980 -601.744568 53.132828
974.975952 -601.488586 12.364840
973.743958 -584.512573 32.044838
971.979980 -580.864563 57.432838
974.175964 -581.920593 26.252838
973.979980 -548.604553 33.460838
975.156006 -590.824585 11.240837
975.859985 -464.256622 24.344839
974.223999 -489.640625 38.880810
975.195984 -539.260559 19.328838
974.959961 -531.860596 23.284840
974.967957 -515.908569 25.892839
975.583984 -465.092621 27.412838
975.911987 -535.028564 10.256840
975.719971 -552.928589 10.280838
975.768005 -506.584625 18.144838
975.791992 -549.980591 9.516838
969.047974 -527.948608 85.924835
969.067993 -533.284607 85.660843
967.471985 -475.540619 97.212837
967.455994 -466.480621 97.516838
967.211975 -500.264618 98.336838
969.251953 -547.484558 84.180840
970.500000 -542.948608 73.044838
970.380005 -523.264587 75.164841
969.544006 -541.532593 81.944839
970.440002 -572.840576 72.076843
970.388000 -514.996582 75.512840
971.515991 -542.816589 64.136841
971.683960 -589.248596 59.984840
971.739990 -536.852600 62.624840
971.631958 -468.360626 67.592834
972.731995 -511.752625 55.832840
962.935974 -481.532623 122.652840
965.683960 -463.764618 108.324837
962.223999 -472.964600 126.240837
961.995972 -498.044617 128.064850
957.259949 -461.816620 147.409042
958.371948 -506.728607 144.557037
958.287964 -524.692566 145.701050
959.911987 -515.592590 138.308838
956.052002 -480.084625 152.977036
943.659973 -528.936584 195.657043
948.259949 -528.444580 182.533035
946.559998 -500.008606 185.185043
946.927979 -475.972626 182.857040
953.239990 -526.296570 165.537048
951.187988 -530.204590 173.005035
952.335999 -515.932617 167.889038
952.511963 -481.436615 165.417038
955.115967 -520.212585 158.709045
955.095947 -497.236603 157.409042
935.423950 -474.880615 211.417038
938.552002 -496.100616 205.941040
935.000000 -503.696625 214.685043
937.823975 -503.208618 208.121033
933.156006 -492.560608 218.013046
915.331970 -510.424622 250.277039
912.835999 -475.276611 251.441040
919.915955 -476.012604 240.801041
921.727966 -493.172607 239.205032
922.987976 -470.748627 235.121033
924.639954 -526.576599 236.745041
923.423950 -468.156616 234.101044
928.523987 -477.148621 225.769043
910.875977 -507.464600 256.501038
910.223999 -532.068604 259.057037
905.087952 -477.844604 261.813049
902.351990 -475.760620 264.941040
893.335999 -519.808594 277.621033
893.435974 -526.960571 278.009033
894.175964 -467.440613 273.309021
893.147949 -487.300629 275.593018
720.851990 -870.764587 334.629028
735.283997 -784.040588 332.601013
734.535950 -782.936584 332.513062
726.763977 -876.424561 335.225037
722.523987 -859.228577 334.357056
740.359985 -789.372559 332.925049
739.303955 -806.988586 333.501038
735.699951 -838.552612 334.485046
743.007996 -835.284607 334.569031
744.500000 -772.880554 332.677063
741.219971 -752.828613 331.873047
747.131958 -757.552612 332.381042
744.139954 -770.628601 332.585022
760.219971 -788.296570 333.725037
755.835999 -774.440613 333.269043
761.259949 -812.920593 334.473022
764.243958 -809.572571 334.401062
769.259949 -774.644592 333.449036
777.519958 -773.008606 333.101013
775.695984 -773.588562 333.197021
787.315979 -799.256592 333.245056
781.099976 -805.356567 333.769043
775.615967 -825.948608 334.597046
773.531982 -858.528564 335.473022
768.987976 -866.084595 335.841064
767.515991 -850.696594 335.521057
757.835999 -931.452576 337.473022
759.627991 -909.792603 336.985046
752.087952 -919.184570 337.285034
739.331970 -892.440613 336.389038
746.723999 -968.456604 338.161011
743.059998 -1021.425598 339.165039
744.483948 -995.296570 338.657043
739.440002 -1002.816589 338.697021
740.263977 -1013.105591 338.929016
821.943970 -967.476562 329.229065
816.552002 -979.300598 330.557068
813.871948 -959.236572 331.253052
816.015991 -957.696594 330.713013
833.227966 -896.996582 325.513062
826.664001 -908.860596 327.717041
835.727966 -885.752563 324.617065
832.112000 -867.796570 325.617065
844.044006 -839.568604 321.045044
