ply
format ascii 1.0
element vertex 1402
property float x
property float y
property float z
end_header
846.215515 1427.449219 209.154602
660.037537 1405.489258 210.529602
771.479553 1422.089233 209.489624
806.780518 1378.689209 212.209625
724.652527 1404.729248 210.576630
871.005554 1266.219238 193.611618
869.737549 1342.419189 208.476624
869.194519 1284.029175 197.086609
707.395569 1331.169189 206.284607
590.464539 1282.469238 196.784607
634.490540 1284.529175 197.184616
739.312561 1351.179199 210.186615
581.432556 1256.879272 191.791626
671.892517 1311.909180 202.526611
710.232544 1359.759277 211.859619
642.822571 1317.429199 203.601624
712.472534 1365.309204 212.941620
582.245544 1295.099243 199.246613
742.879517 1329.909180 206.036621
550.995544 1270.039185 194.359619
610.562561 1331.459229 206.339630
706.157532 1302.599243 200.709625
632.295532 1304.139160 201.009613
662.914551 1292.019165 198.646606
597.014526 1287.629272 197.789612
562.034546 1329.529175 205.964630
650.295532 1365.529175 212.986603
712.482544 1324.279175 204.939606
620.937561 1344.539185 208.891602
671.317566 1314.689209 203.069611
708.420532 1312.209229 202.584625
596.172546 1260.939209 192.584625
605.274536 1294.579224 199.146606
633.935547 1299.189209 200.044617
707.192566 1332.269165 206.496613
774.282532 1361.089233 212.119629
683.949524 1323.189209 204.726624
562.847534 1293.079224 198.851624
585.937561 1359.549194 211.819611
564.909546 1283.919189 197.064606
620.449524 1360.289185 211.961609
549.227539 1325.579224 205.191620
671.969543 1354.729248 210.876617
621.865540 1288.559204 197.971619
609.310547 1364.609253 212.806610
615.167542 1284.089233 197.099609
805.979553 1357.989258 211.514618
648.842529 1362.339233 212.364624
753.292542 1320.379272 204.179626
537.892517 1277.739258 195.861618
570.337524 1310.609253 202.271606
813.737549 1265.089233 193.391617
861.229553 1295.349243 199.294617
672.902527 1253.749268 191.181610
854.322571 1243.209229 189.124619
644.349548 1260.129272 192.426605
716.434570 1298.049194 199.821625
757.722534 1268.659180 194.089615
755.352539 1233.319214 187.194611
765.597534 1287.339233 197.731613
684.594543 1264.229248 193.224609
780.570557 1250.369263 190.521606
784.392517 1262.839233 192.954620
778.217529 1278.259277 195.961609
833.302551 1254.129272 191.254608
846.934570 1269.779175 194.306610
840.187561 1322.229248 204.539612
745.947571 1245.669189 189.604614
686.017517 1240.399170 188.576614
861.527527 1257.809204 191.974609
829.390564 1297.929199 199.799622
808.707520 1288.829224 198.024612
737.714539 1273.829224 195.096619
809.745544 1314.159180 202.964630
705.545532 1294.359253 199.101624
641.024536 1244.309204 189.339615
834.885559 1308.219238 201.806610
852.089539 1274.239258 195.179626
740.015564 1307.769165 201.716614
828.820557 1315.049194 203.139618
761.440552 1251.379272 190.716614
704.904541 1245.429199 189.559616
773.664551 1310.619263 202.274612
810.997559 1328.509277 205.764618
653.942566 1233.999268 187.329620
809.607544 1307.409180 201.649612
733.275574 1275.739258 195.469604
760.315552 1285.979248 197.469604
844.922546 1287.209229 197.706619
591.492554 1244.959229 189.466614
637.210571 1267.929199 193.949615
844.969543 1249.829224 190.416626
730.005554 1240.689209 188.634613
655.977539 1279.779175 196.259613
870.837524 1128.489258 122.954216
868.442566 1177.429199 153.016724
868.247559 1188.449219 159.784210
782.127563 1231.809204 186.419617
743.050537 1195.369263 164.036713
611.182556 1190.679199 161.156708
814.837524 1222.459229 180.674622
689.152527 1189.659180 160.526718
715.732544 1222.739258 180.846619
648.985535 1166.109253 146.056717
620.742554 1192.449219 162.239212
559.134521 1190.939209 161.314209
543.945557 1127.369263 122.261810
544.449524 1190.279175 160.906708
609.854553 1212.689209 174.674622
619.680542 1155.269165 139.401718
639.697571 1196.439209 164.689209
604.595520 1201.939209 168.069214
618.907532 1177.359253 152.971710
694.490540 1200.639160 167.269226
615.769531 1167.559204 146.954224
585.907532 1141.029175 130.654221
583.729553 1186.399170 158.524216
654.867554 1230.809204 185.804626
555.367554 1141.039185 130.661713
657.442566 1219.979248 179.151611
610.074524 1166.729248 146.444122
555.932556 1147.109253 134.386612
626.767517 1226.079224 182.894623
753.180542 1231.249268 186.074615
708.664551 1187.559204 159.236725
541.417542 1230.249268 185.461609
540.190552 1137.999268 128.796722
570.444519 1176.319214 152.334213
687.297546 1176.829224 152.646713
764.940552 1214.899170 176.031616
569.624573 1196.949219 165.006622
566.002563 1155.369263 139.461716
548.289551 1132.929199 125.681717
656.560547 1177.299194 152.934204
802.430542 1213.719238 175.304626
632.015564 1156.939209 140.431717
695.132568 1187.539185 159.221710
607.172546 1171.549194 149.401718
774.574524 1222.849243 180.911621
785.317566 1203.839233 169.234222
836.122559 1126.149170 121.516716
853.502563 1160.119263 142.381714
569.815552 1128.749268 123.116714
683.147522 1148.269165 135.104218
745.805542 1162.999268 144.146713
669.060547 1130.389160 124.119217
862.575562 1215.549194 176.429626
807.292542 1162.229248 143.679214
797.875549 1187.699219 159.321716
787.705566 1187.219238 159.029205
835.300537 1162.779175 144.014221
700.279541 1139.509277 129.724213
728.649536 1144.949219 133.061707
805.572571 1163.479248 144.446716
813.474548 1211.829224 174.141724
811.797546 1152.819214 137.896713
553.934570 1122.189209 119.086716
806.527527 1151.829224 137.286713
764.235535 1151.299194 136.966721
652.110535 1142.199219 131.371719
812.419556 1200.389160 167.116714
806.427551 1148.869263 135.469208
750.474548 1141.879272 131.179214
710.337524 1124.629272 120.581818
860.942566 1209.879272 172.946625
752.707520 1126.099243 121.484215
682.284546 1122.399170 119.211716
831.487549 1194.349243 163.404205
713.485535 1179.359253 154.199310
849.674561 1131.769165 124.969215
671.384521 1165.169189 145.484222
843.202515 1223.539185 181.334625
733.117554 1126.039185 121.449219
774.397522 1175.659180 151.929214
765.087524 1189.509277 160.431717
673.912537 1141.899170 131.189209
780.047546 1193.329224 162.781708
802.722534 1156.849243 140.374207
554.354553 1125.919189 121.376816
841.200562 1145.799194 133.586716
705.509521 1133.869263 126.259117
872.062561 1029.849243 39.724216
872.432556 1103.639160 103.241714
748.887573 1091.869141 93.109215
665.404541 1102.559204 102.314217
738.137573 1119.389160 116.801712
744.655518 1101.629272 101.506813
689.039551 1097.299194 97.786713
629.069519 1091.989258 93.214218
810.932556 1106.839233 105.991714
842.794556 1118.729248 116.226715
652.649536 1081.129150 83.861710
604.844543 1071.919189 75.931709
590.657532 1067.579224 72.201668
660.397522 1086.109131 88.151718
562.952515 1038.007202 46.746716
598.569519 1070.069214 74.344185
804.680542 1120.899170 118.094215
659.642517 1068.869141 73.311775
652.314514 1067.599243 72.219246
617.317566 1098.819214 99.091713
751.782532 1118.399170 115.946716
559.420532 1073.849243 77.594246
667.197571 1096.539185 97.126717
575.244568 1062.251221 67.616707
539.474548 1095.049194 95.844215
618.315552 1092.039185 93.254211
617.454529 1055.164185 61.514214
565.692566 1051.537231 58.391716
550.242554 1035.734131 44.789215
741.360535 1091.629150 92.899216
722.727539 1083.699219 86.076714
612.012573 1097.479248 97.936615
785.339539 1097.429199 97.891716
827.922546 1117.989258 115.586716
607.339539 1083.419189 85.834213
570.914551 1084.239136 86.536713
629.357544 1112.339233 110.724213
767.277527 1107.879272 106.889221
575.185547 1038.732178 47.369316
677.717529 1110.689209 109.304214
683.920532 1098.229248 98.584213
818.529541 1107.769165 106.799217
605.570557 1100.539185 100.569214
666.959534 1092.059204 93.274216
803.567566 1080.519165 83.339249
797.469543 1037.459229 46.274216
776.807556 1031.049194 40.756714
629.445557 1036.506226 45.454216
836.875549 1058.454224 64.344215
643.562561 1021.367188 32.421715
739.274536 1062.714233 68.011726
791.950562 1040.257202 48.681717
748.602539 1052.272217 59.024216
828.037537 1075.409180 78.944229
819.132568 1050.279175 57.309216
820.412537 1076.919189 80.239265
736.289551 1070.309204 74.554207
767.297546 1063.194214 68.426765
682.709534 1058.546143 64.424217
819.054565 1035.369141 44.474216
631.872559 1026.934204 37.214214
821.857544 1069.849243 74.154243
672.547546 1036.059204 45.069214
730.592529 1061.954224 67.359192
830.797546 1056.229248 62.429214
781.757568 1023.424133 34.194214
705.704529 1046.564209 54.111717
781.849548 1089.009155 90.651718
718.695557 1062.034180 67.426704
863.170532 1059.397217 65.156685
676.435547 1028.729248 38.759216
820.352539 1021.837158 32.826717
549.987549 1021.427185 32.471714
804.420532 1078.169189 81.314217
806.484558 1097.409180 97.876717
600.347534 1027.439209 37.649216
593.402527 1022.261169 33.191715
840.499573 1050.989136 57.919216
709.197571 1033.361206 42.746716
800.307556 1046.549194 54.099216
755.255554 1065.354248 70.286682
809.577515 1058.237183 64.159218
770.060547 1081.449219 84.141663
704.932556 1037.902222 46.656715
777.120544 1045.904175 53.544216
761.529541 1074.359131 78.036758
615.732544 1029.904175 39.771717
871.182556 972.292175 -39.418381
870.320557 1018.609131 28.914215
624.584534 996.134155 -4.243286
684.512573 1019.634155 30.429214
558.187561 1004.879150 8.659218
677.212524 987.189148 -17.438286
664.305542 1012.759155 20.284214
599.797546 1017.739136 27.631714
773.884521 1008.739136 14.354214
771.007568 1006.422180 10.934216
563.320557 1015.992188 25.051716
566.312561 963.374146 -52.573387
634.224548 988.784180 -15.088287
638.180542 1003.509155 6.636719
645.317566 977.681152 -31.465385
591.327515 998.521179 -0.720787
699.162537 993.952148 -7.460785
819.732544 1018.407166 28.616714
763.157532 1007.342163 12.294216
615.020569 974.169128 -36.648384
549.677551 949.397156 -73.195381
726.134521 1014.489136 22.836716
710.430542 1012.704163 20.204216
648.477539 1013.106140 20.799217
642.360535 989.134155 -14.570786
560.207520 1015.964172 25.014217
764.334534 1016.006165 25.076717
675.034546 1005.584167 9.699219
624.250549 992.554138 -9.523285
581.755554 972.399170 -39.258385
643.692566 1004.452148 8.029213
700.820557 984.844177 -20.898285
546.974548 964.699158 -50.620384
615.577515 1005.112183 9.004219
624.715515 981.491150 -25.845383
779.884521 1017.771179 27.681717
741.940552 999.419128 0.601715
664.497559 1015.224182 23.921715
744.727539 1012.402161 19.756714
648.084534 996.489136 -3.715782
688.117554 983.774170 -22.478287
540.512573 1010.202148 16.511715
684.312561 993.887146 -7.555786
629.474548 1002.376160 4.966713
681.479553 997.649170 -2.008286
725.170532 965.836182 -48.940384
692.195557 975.724182 -34.355385
839.167542 966.759155 -47.578384
660.459534 968.679138 -44.745384
845.697571 952.974182 -67.915382
777.387573 971.202148 -41.023384
647.837524 958.137146 -60.298378
791.717529 994.392151 -6.813286
690.602539 972.674133 -38.853386
845.159546 988.424133 -15.615784
856.614563 996.482178 -3.730782
844.147522 952.397156 -68.768379
845.795532 955.946167 -63.530388
712.565552 955.109131 -64.768379
711.190552 966.439148 -48.050385
767.737549 982.282166 -24.680786
601.914551 957.034180 -61.925377
845.967529 993.354187 -8.343285
598.072571 952.481140 -68.640388
749.637573 975.931152 -34.048386
769.917542 947.751160 -75.623390
668.382568 951.869141 -69.545387
715.142517 957.079163 -61.860390
720.532532 980.209167 -27.735382
766.832520 961.671143 -55.083382
808.940552 948.164185 -75.010384
816.702515 987.439148 -17.068283
620.807556 957.871155 -60.690392
839.267517 991.207153 -11.513283
618.832520 957.037170 -61.923378
830.507568 987.659180 -16.745781
866.662537 968.059143 -45.660385
636.199524 946.089172 -78.073387
681.974548 963.147156 -52.908386
854.394531 977.171143 -32.218384
543.392517 946.094177 -78.065392
770.969543 976.819153 -32.738388
783.547546 997.444153 -2.310783
646.170532 954.559143 -65.578392
841.284546 951.401184 -70.233391
796.592529 949.224182 -73.448387
629.507568 951.729187 -69.750389
875.689514 922.224182 -134.305389
873.479553 930.316162 -115.213387
550.590515 938.252136 -96.495384
711.490540 935.411133 -103.193382
550.312561 907.729187 -168.498383
698.617554 924.037170 -130.030396
554.719543 905.504150 -173.750397
655.579529 940.039185 -92.278389
625.550537 915.972168 -149.055389
714.442566 942.231140 -87.105385
579.687561 928.554138 -119.373390
843.724548 943.722168 -83.590385
785.604553 936.667175 -100.230385
556.995544 897.567139 -192.473389
543.022522 944.066162 -82.778389
770.712524 937.976135 -97.143379
772.282532 936.624146 -100.335381
652.302551 916.984131 -146.668396
675.510559 923.254150 -131.873383
714.334534 942.214172 -87.148384
562.709534 931.232178 -113.055382
571.782532 931.439148 -112.563377
614.837524 927.986145 -120.710381
594.805542 925.624146 -126.280388
690.659546 926.936157 -123.185387
753.607544 932.856140 -109.218391
717.784546 934.169128 -106.123390
600.454529 909.052185 -165.380371
728.784546 935.461182 -103.073387
683.884521 923.521179 -131.240387
744.237549 928.179138 -120.255379
710.339539 943.729187 -83.573387
723.377563 944.992188 -80.593391
744.307556 940.374146 -91.485390
811.764526 945.062134 -80.428383
609.932556 908.106140 -167.605377
672.982544 942.452148 -86.588387
756.557556 942.764160 -85.848381
732.159546 934.341187 -105.720390
556.542542 930.936157 -113.750389
731.447571 941.434143 -88.985390
641.765564 931.902161 -111.470390
679.107544 925.384155 -126.850380
789.289551 934.819153 -104.593391
540.442566 900.864136 -184.695404
828.692566 919.247131 -141.328400
838.812561 928.289185 -119.993385
843.899536 910.691162 -161.508392
829.017517 897.174133 -193.395386
758.344543 916.314148 -148.245392
852.169556 921.139160 -136.865387
860.904541 937.484131 -98.305382
661.729553 898.387146 -190.535400
804.847534 921.026184 -137.125397
753.625549 916.459167 -147.903381
699.122559 897.054138 -193.683380
655.495544 910.372131 -162.263397
862.209534 917.116150 -146.353394
833.587524 924.496155 -128.940399
817.300537 897.987183 -191.483398
835.245544 918.764160 -142.465393
762.902527 912.614136 -156.978394
774.115540 910.184143 -162.708374
767.795532 909.279175 -164.840393
667.322571 910.001160 -163.135376
710.237549 896.429138 -195.153381
684.890564 906.342163 -171.768372
861.744568 921.491150 -136.033386
825.947571 936.336182 -101.013390
766.027527 898.199158 -190.978394
823.477539 928.931152 -118.478386
791.639526 912.227173 -157.888397
863.627563 923.832153 -130.508392
663.377563 903.014160 -179.620392
815.187561 923.759155 -130.683380
685.192566 897.446167 -192.758392
738.854553 905.709167 -173.263397
859.007568 941.816162 -88.085381
724.640564 896.812134 -194.253387
707.825562 911.459167 -159.700378
784.125549 915.124146 -151.053375
803.229553 925.394165 -126.828392
814.097534 932.441162 -110.198387
782.967529 926.124146 -125.100380
859.819519 908.854187 -165.843384
786.677551 907.659180 -168.663391
841.597534 914.282166 -153.040375
817.937561 931.477173 -112.473381
870.380554 891.827148 -232.660400
649.337524 892.129150 -228.430389
569.094543 892.719177 -220.223389
826.887573 894.124146 -200.645386
705.447571 893.794128 -205.265381
609.077515 893.339172 -211.573395
661.570557 893.961182 -202.900391
832.152527 894.054138 -201.638397
651.145569 891.847168 -232.380402
705.284546 892.887146 -217.885406
545.282532 891.441162 -238.015381
616.302551 892.001160 -230.203400
684.960571 892.689148 -220.645386
595.447571 891.272156 -240.385406
584.342529 891.034180 -243.700378
704.904541 892.367188 -225.133392
605.077515 893.094177 -214.988403
730.774536 893.411133 -210.568390
600.167542 890.254150 -254.565399
581.197571 891.896179 -231.678406
724.657532 894.017151 -202.140381
715.687561 892.269165 -226.493378
743.189514 892.574158 -222.228394
656.867554 891.309143 -239.850403
749.547546 894.107178 -200.913391
590.507568 889.629150 -263.258392
821.857544 889.289185 -267.983398
848.050537 889.194153 -269.313385
807.092529 890.372131 -252.898407
818.452515 891.346130 -239.330383
808.339539 890.234131 -254.813385
684.397522 889.856140 -260.070404
677.177551 890.426147 -252.150391
790.457520 889.837158 -260.373383
824.362549 890.489136 -251.290405
820.632568 890.989136 -244.325378
786.834534 890.842163 -246.355377
707.902527 890.789185 -247.100403
747.457520 890.127136 -256.315399
753.062561 889.216187 -268.988403
808.197571 890.121155 -256.400391
735.082520 888.847168 -274.158386
743.747559 889.397156 -266.483398
722.719543 890.712158 -248.185394
816.497559 889.094177 -270.688385
758.680542 891.861145 -232.173401
778.589539 888.626160 -277.218384
849.110535 889.319153 -267.565399
672.404541 890.306152 -253.823395
725.115540 890.111145 -256.520386
703.227539 889.467163 -265.520386
871.067566 887.142151 -301.950378
594.202515 886.862183 -306.665405
617.779541 887.867188 -289.738403
714.184570 887.512146 -295.713379
665.094543 887.496155 -295.953400
558.814514 887.357178 -298.313385
620.827515 886.859131 -306.700378
627.445557 887.164185 -301.548401
589.262573 886.222168 -317.445404
565.939514 886.594177 -311.173401
558.312561 888.434143 -280.188385
676.219543 887.947144 -288.383392
668.812561 887.844177 -290.115387
586.422546 886.801147 -307.688385
551.145569 887.756165 -291.583405
653.104553 887.779175 -291.223389
808.495544 886.422180 -314.083405
821.394531 886.272156 -316.625397
860.147522 887.579163 -294.593384
854.920532 888.152161 -284.950378
630.240540 886.514160 -312.538391
656.557556 886.677185 -309.763397
844.577515 886.039185 -320.543396
800.575562 886.852173 -306.850403
747.837524 886.212158 -317.595398
865.517517 886.862183 -306.685394
609.255554 886.244141 -317.085388
801.857544 887.734131 -291.968384
831.162537 885.769165 -325.053406
853.892517 886.027161 -320.745392
836.449524 885.827148 -324.098389
872.677551 885.387146 -334.468384
876.664551 881.967163 -418.475403
768.524536 882.604187 -402.823395
857.474548 884.952148 -345.168396
757.570557 881.662170 -425.948395
771.682556 884.487183 -356.593384
797.637573 882.607178 -402.755402
796.654541 883.349182 -384.510406
782.979553 883.811157 -373.120392
715.472534 883.202148 -388.160400
648.877563 881.942139 -419.110382
698.270569 881.514160 -429.615387
677.487549 881.872131 -420.830383
865.744568 883.874146 -371.640381
732.642517 881.734131 -424.155396
736.352539 882.376160 -408.383392
823.652527 881.986145 -418.008392
805.529541 884.736145 -350.413391
848.227539 884.749146 -350.135406
835.389526 883.717163 -375.455383
772.432556 881.537170 -429.045380
730.992554 882.649170 -401.715393
773.342529 881.537170 -429.050385
661.829529 883.074158 -391.258392
835.457520 882.581177 -403.353394
861.894531 885.017151 -343.530396
815.377563 883.571167 -379.030396
680.934570 882.999146 -393.105377
739.767517 883.179138 -388.670380
598.229553 881.969177 -418.395386
756.024536 882.342163 -409.263397
726.414551 882.842163 -397.005402
623.162537 881.642151 -426.440399
829.719543 885.061157 -342.410400
769.487549 882.869141 -396.315399
840.677551 884.339172 -360.185394
859.422546 882.734131 -399.588379
732.697571 884.834167 -348.035400
666.557556 883.199158 -388.183380
708.014526 884.147156 -364.930389
655.729553 885.284180 -336.953400
538.304565 882.366150 -408.663391
673.252563 884.012146 -368.218384
808.377563 885.299133 -336.578400
539.635559 883.559143 -379.323395
666.152527 885.594177 -329.358398
725.847534 885.139160 -340.525391
570.070557 883.577148 -378.918396
686.242554 884.039185 -367.535400
713.029541 885.739136 -325.795380
550.800537 883.652161 -377.083405
626.107544 882.914185 -395.208405
576.472534 884.119141 -365.583405
590.340515 883.997131 -368.633392
664.707520 883.141174 -389.628387
599.779541 883.307129 -385.543396
609.495544 882.394165 -407.953400
769.704529 885.169128 -339.808380
548.729553 884.092163 -366.290405
545.142517 882.894165 -395.678406
753.387573 885.589172 -329.503387
711.425537 883.774170 -374.055389
576.060547 882.419128 -407.370392
696.724548 884.686157 -351.635406
623.454529 884.946167 -345.290405
839.014526 885.579163 -329.723389
644.914551 884.354187 -359.815399
667.335571 884.056152 -367.118378
614.969543 885.574158 -329.855377
547.534546 883.539185 -379.858398
643.677551 885.679138 -327.285400
527.677551 1886.989258 -324.445404
536.097534 1890.159180 -392.855377
529.995544 1879.549194 -265.548401
530.185547 1880.009277 -269.140381
531.937561 1866.919189 -166.205383
535.337524 1852.099243 -113.025383
529.385559 1836.909180 -69.343391
534.757568 1829.499268 -41.605385
527.750549 1774.129272 56.109215
530.452515 1760.969238 70.069283
530.509521 1731.359253 96.621811
534.154541 1683.979248 127.236717
533.755554 1695.339233 119.896713
532.379517 1570.409180 181.756622
535.652527 1604.649170 170.511810
536.197571 1608.469238 169.254318
529.469543 1408.829224 210.319611
533.157532 1388.009277 211.624603
530.167542 1359.959229 211.899628
535.137573 1363.359253 212.561615
534.344543 1308.199219 201.801605
527.284546 1216.799194 177.199615
535.767517 1213.429199 175.124619
531.842529 1082.119141 84.721718
532.264526 1046.914185 54.411716
536.000549 1103.689209 103.281715
534.449524 1013.414185 21.249317
531.027527 1013.921143 22.001717
535.144531 987.217163 -17.398285
529.724548 939.559143 -93.410378
532.019531 911.079163 -160.598389
530.180542 891.209167 -215.330383
536.092529 891.801147 -219.418396
529.627563 880.162170 -294.208405
532.817566 883.517151 -380.398407
532.034546 883.462158 -377.618378
476.797546 1483.689209 -397.955383
389.997559 1483.649170 -397.378387
285.675537 1483.929199 -401.100403
217.030548 1483.899170 -400.780396
298.824554 1483.889160 -400.608398
178.986542 1483.649170 -397.443390
334.949554 1484.229248 -405.085388
383.210541 1484.739258 -411.808380
74.740051 1484.019165 -402.283386
342.875549 1484.419189 -407.530396
107.086548 1484.199219 -404.648407
60.081547 1484.039185 -402.540405
188.593536 1484.209229 -404.830383
59.879749 1484.179199 -404.478394
505.327545 1484.069214 -402.968384
156.267548 1482.759277 -392.923401
306.737549 1483.349243 -395.728394
103.456551 1483.009277 -394.083405
23.037249 1481.669189 -387.635406
413.935547 1483.319214 -395.590393
97.064552 1482.259277 -390.478394
27.292747 1480.179199 -380.468384
330.300537 1482.969238 -393.888397
14.978949 1479.919189 -379.190399
118.924553 1481.759277 -388.075378
203.031540 1479.899170 -379.113403
314.992554 1479.419189 -376.790405
90.168251 1479.389160 -376.663391
153.637543 1479.239258 -375.938385
409.300537 1482.199219 -390.185394
458.207550 1481.189209 -385.338379
363.642548 1480.309204 -381.080383
316.224548 1479.589233 -377.610382
303.685547 1480.039185 -379.768402
185.450546 1479.569214 -377.520386
303.020538 1479.569214 -377.530396
97.226555 1474.019165 -365.095398
256.597534 1474.499268 -366.090393
383.239532 1479.119263 -375.523407
59.872547 1473.709229 -364.463379
9.770048 1478.069214 -373.385406
184.416550 1473.279175 -363.600403
349.297546 1477.259277 -371.738403
212.000549 1477.309204 -371.828400
415.854553 1478.439209 -374.150391
306.337555 1479.049194 -375.385406
291.072540 1477.809204 -372.858398
469.515533 1470.569214 -358.045380
266.597534 1469.699219 -356.268402
447.827545 1477.759277 -372.760406
210.521545 1470.929199 -358.778381
413.137543 1477.039185 -371.270386
151.621552 1470.119263 -357.128387
300.009552 1470.919189 -358.773407
320.967529 1473.339233 -363.700378
243.246552 1473.139160 -363.313385
340.862549 1470.999268 -358.928406
383.167542 1476.539185 -370.263397
387.182556 1468.929199 -355.025391
284.502533 1469.029175 -355.153381
381.045532 1467.359253 -352.948395
192.458542 1467.549194 -353.195404
158.216537 1459.009277 -343.378387
15.571947 1465.299194 -350.445404
234.586548 1461.939209 -346.675385
188.002548 1460.889160 -345.490387
141.137543 1459.489258 -343.915405
99.418549 1464.079224 -349.075378
22.317547 1464.479248 -349.523407
117.839554 1463.259277 -348.158386
144.657547 1456.779175 -340.885406
368.227539 1462.789185 -347.623383
495.917542 1457.539185 -341.733398
460.775543 1458.829224 -343.185394
414.420532 1456.219238 -340.253387
301.129547 1455.489258 -339.435394
323.077545 1461.779175 -346.498383
229.583542 1457.719238 -341.938385
480.232544 1458.799194 -343.153381
505.544556 1459.389160 -343.810394
276.327545 1453.829224 -338.045380
180.480545 1447.389160 -333.615387
5.392998 1439.269165 -328.045380
216.100540 1453.709229 -337.960388
167.610550 1446.939209 -333.310394
77.622055 1446.569214 -333.055389
74.665253 1442.429199 -330.215393
75.661049 1451.789185 -336.640381
45.361549 1454.579224 -338.558380
216.215546 1453.869263 -338.070404
173.554550 1452.779175 -337.325378
377.157532 1448.259277 -334.215393
398.257538 1450.029175 -335.435394
485.847534 1445.849243 -332.565399
277.029541 1440.469238 -328.870392
355.542542 1443.509277 -330.955383
423.492554 1445.309204 -332.195404
396.787537 1439.039185 -327.885406
322.207550 1437.489258 -326.820404
326.812531 1446.009277 -332.673401
211.751541 1441.079224 -329.283386
403.519531 1442.889160 -330.525391
110.118553 1427.109253 -322.935394
88.467552 1424.879272 -322.150391
379.867554 1433.659180 -325.240387
193.038544 1426.109253 -322.585388
60.073750 1433.469238 -325.173401
107.828552 1424.679199 -322.080383
285.017548 1436.509277 -326.243378
52.984249 1434.099243 -325.393402
103.475548 1434.109253 -325.398407
1.604198 1435.789185 -325.990387
437.507538 1434.359253 -325.485382
217.882538 1422.399170 -321.278381
80.730049 1419.509277 -320.260406
43.258747 1417.049194 -319.398407
488.160553 1435.099243 -325.745392
181.806549 1418.909180 -320.053406
371.155548 1426.389160 -322.683380
258.870544 1426.789185 -322.825378
454.380554 1423.399170 -321.630402
167.510544 1420.589233 -320.643402
489.754547 1421.079224 -320.815399
389.022552 1428.719238 -323.503387
447.770538 1416.159180 -319.105377
13.024948 1401.119263 -318.048401
40.009048 1403.549194 -318.218384
281.557556 1412.339233 -318.835388
403.772552 1414.879272 -319.015381
468.437531 1415.539185 -319.060394
137.246552 1405.259277 -318.338379
31.197548 1408.189209 -318.543396
147.270538 1402.539185 -318.148407
193.709549 1412.909180 -318.875397
307.147552 1401.999268 -318.108398
203.686539 1398.599243 -317.870392
441.409546 1398.209229 -317.843384
170.077545 1394.979248 -317.615387
370.205536 1405.999268 -318.390381
46.386547 1396.439209 -317.718384
185.294540 1399.869263 -317.958405
386.835541 1394.719238 -317.595398
390.467529 1395.169189 -317.628387
347.482544 1406.789185 -318.445404
451.807556 1414.029175 -318.955383
500.217529 1396.709229 -317.735382
173.729538 1391.699219 -318.185394
155.278549 1383.339233 -319.883392
127.524559 1384.279175 -319.693390
369.050537 1391.639160 -318.198395
35.844246 1393.789185 -317.760406
305.550537 1388.349243 -318.865387
123.995552 1389.359253 -318.660400
423.572540 1391.729248 -318.180389
41.044548 1386.689209 -319.203400
108.489555 1389.759277 -318.580383
143.106537 1386.689209 -319.203400
382.784546 1389.759277 -318.578400
65.986252 1374.659180 -321.645386
340.517548 1374.639160 -321.650391
346.667542 1375.889160 -321.395386
376.884552 1387.929199 -318.950378
285.590546 1375.499268 -321.475403
289.377533 1376.149170 -321.343384
448.754547 1382.619263 -320.030396
296.205536 1379.939209 -320.573395
356.550537 1387.069214 -319.125397
91.619255 1366.699219 -325.333405
305.860535 1367.299194 -325.028381
264.247559 1372.799194 -322.228394
22.247047 1369.169189 -324.078400
210.653549 1363.469238 -326.980377
194.569550 1367.869263 -324.738403
49.054546 1361.249268 -328.110382
164.298538 1361.289185 -328.090393
100.689552 1365.619263 -325.885406
345.117554 1369.239258 -324.040405
278.685547 1362.159180 -327.645386
461.182556 1362.209229 -327.623383
125.920555 1357.939209 -329.795380
418.885559 1359.889160 -328.805389
337.692535 1360.789185 -328.343384
386.597534 1357.179199 -330.183380
443.990540 1356.419189 -330.568390
380.017548 1364.859253 -326.270386
124.138557 1356.599243 -330.478394
488.269531 1355.919189 -330.823395
390.914551 1365.379272 -326.008392
433.042542 1352.169189 -333.550385
-0.458782 1351.969238 -333.728394
219.737549 1349.499268 -335.988403
273.275543 1348.929199 -336.505402
381.375549 1352.969238 -332.818390
331.360535 1352.479248 -333.263397
34.911747 1346.039185 -339.138397
68.312752 1340.479248 -344.208405
389.865540 1351.659180 -334.008392
272.917542 1353.969238 -331.905396
68.327751 1345.339233 -339.783386
448.384552 1348.539185 -336.855377
334.042542 1343.669189 -341.300385
443.487549 1340.309204 -344.363403
321.309540 1348.129272 -337.235382
124.743553 1342.019165 -342.808380
167.459549 1340.519165 -344.180389
378.914551 1348.259277 -337.118378
277.860535 1341.159180 -343.588379
319.057556 1345.469238 -339.658386
382.490540 1348.559204 -336.838379
400.347534 1348.999268 -336.438385
11.181047 1332.309204 -355.473389
26.919048 1335.969238 -349.733398
413.852539 1337.939209 -346.635406
108.049553 1330.249268 -358.718384
153.663544 1330.329224 -358.588379
45.077049 1335.839233 -349.938385
1.125748 1329.569214 -359.783386
170.375549 1335.589233 -350.320404
255.610535 1332.549194 -355.100403
216.768539 1336.089233 -349.540405
207.257538 1327.129272 -363.613403
204.096542 1330.819214 -357.813385
230.003540 1329.709229 -359.568390
467.229553 1329.329224 -360.160400
218.733551 1331.499268 -356.750397
321.347534 1329.149170 -360.445404
451.964539 1329.489258 -359.915405
377.129547 1334.989258 -351.258392
285.057556 1329.739258 -359.510406
346.824554 1330.019165 -359.075378
166.100540 1329.269165 -360.250397
131.188538 1322.619263 -377.373383
77.683754 1325.189209 -368.650391
86.854248 1322.759277 -376.878387
73.481255 1325.639160 -367.130402
411.792542 1326.269165 -365.015381
17.055248 1324.979248 -369.373383
207.833542 1324.889160 -369.683380
174.580551 1326.249268 -365.080383
210.018539 1323.029175 -375.973389
10.175447 1323.009277 -376.030396
134.110550 1325.329224 -368.200378
474.647552 1322.569214 -377.525391
427.577545 1325.179199 -368.695404
474.659546 1322.109253 -379.083405
117.991554 1320.779175 -383.565399
399.837555 1321.749268 -380.298401
373.412537 1320.689209 -383.865387
228.026550 1320.309204 -385.143402
303.317535 1320.289185 -385.245392
323.247559 1323.779175 -373.433380
239.433548 1319.969238 -386.305389
348.939545 1322.079224 -379.198395
212.179550 1320.059204 -386.013397
504.184540 1325.439209 -367.803406
100.497551 1319.539185 -389.700378
139.958542 1319.249268 -394.135406
366.634552 1319.639160 -388.033386
114.970551 1319.579224 -388.940399
210.783539 1319.489258 -390.478394
15.395147 1319.019165 -397.825378
49.245247 1318.989258 -398.360382
496.597534 1318.899170 -399.630402
87.240051 1318.899170 -399.720398
496.284546 1319.179199 -395.290405
366.494537 1318.849243 -400.440399
482.444550 1319.639160 -388.020386
336.300537 1319.289185 -393.583405
366.737549 1319.389160 -391.918396
283.587555 1318.739258 -402.723389
8.365448 1318.479248 -407.703400
403.279541 1318.799194 -401.543396
241.117538 1318.679199 -403.700378
131.979538 1318.489258 -407.418396
214.330551 1318.499268 -407.253387
174.669540 1318.509277 -407.058380
417.757538 1318.709229 -403.150391
271.587555 1319.089233 -416.840393
496.214539 1319.059204 -416.428406
379.324554 1319.089233 -416.788391
479.932556 1318.639160 -410.930389
265.737549 1318.649170 -411.030396
207.194550 1318.719238 -411.890381
74.960548 1318.489258 -408.950378
98.411552 1318.509277 -409.183380
500.854553 1318.549194 -409.690399
513.939514 1614.789185 -374.038391
515.217529 1642.179199 -395.030396
514.065552 1617.499268 -376.630402
526.727539 1877.999268 -351.980377
522.827515 1797.149170 -346.428406
511.969543 1575.059204 -395.370392
526.945557 1882.379272 -349.320404
524.124573 1824.299194 -353.410400
526.615540 1877.049194 -381.558380
521.812561 1776.499268 -353.718384
523.084534 1803.599243 -370.778381
510.104553 1536.549194 -395.995392
526.769531 1878.929199 -353.278381
524.199524 1826.839233 -375.293396
521.357544 1767.309204 -357.553406
524.039551 1823.089233 -365.448395
518.240540 1703.849243 -378.978394
523.375549 1808.419189 -345.065399
525.820557 1861.049194 -391.058380
512.555542 1586.459229 -380.228394
521.322571 1767.709229 -382.873383
524.882568 1839.619263 -346.318390
525.014526 1843.119263 -363.835388
526.019531 1864.589233 -378.010406
526.045532 1865.139160 -378.798401
517.937561 1697.149170 -368.880402
518.662537 1712.379272 -374.240387
522.772522 1798.109253 -391.300385
524.437561 1829.949219 -337.035400
520.202515 1744.349243 -377.318390
510.257568 1539.909180 -398.888397
514.172546 1621.339233 -406.168396
514.577515 1629.729248 -406.818390
515.397522 1646.429199 -403.383392
508.462524 1502.959229 -400.520386
508.357544 1501.229248 -406.405396
517.622559 1689.539185 -356.465393
511.759521 1569.589233 -379.090393
511.829529 1569.389160 -370.820404
517.270569 1681.829224 -355.293396
513.437561 1602.089233 -363.780396
511.619568 1567.099243 -381.250397
520.519531 1749.059204 -346.283386
509.580566 1522.979248 -377.595398
509.144531 1515.789185 -387.650391
524.062561 1808.579224 -230.975403
526.882568 1869.389160 -242.405396
523.707520 1804.409180 -256.915405
524.610535 1823.729248 -259.603394
526.462524 1861.169189 -247.135406
521.052551 1750.049194 -269.118378
521.954529 1776.329224 -326.160400
520.237549 1731.719238 -259.600403
514.182556 1611.519165 -316.793396
526.827515 1876.949219 -310.948395
516.372559 1660.329224 -338.150391
526.092529 1853.209229 -245.763397
510.622559 1542.589233 -363.950378
522.177551 1774.309204 -273.640381
524.757568 1827.519165 -264.825378
514.582520 1619.739258 -315.215393
521.479553 1755.279175 -239.390381
522.145569 1771.399170 -256.085388
525.495544 1834.999268 -201.603394
524.229553 1816.339233 -264.070404
523.084534 1785.019165 -207.390381
525.892517 1839.269165 -169.198395
526.527527 1858.809204 -218.030396
519.005554 1709.269165 -287.285400
525.870544 1851.589233 -269.898407
517.885559 1687.889160 -304.605377
525.084534 1833.029175 -253.965393
512.142517 1573.249268 -353.683380
525.735535 1840.549194 -205.480377
509.519531 1519.649170 -366.100403
523.032532 1784.999268 -215.825378
524.589539 1831.409180 -323.093384
521.552551 1764.919189 -303.245392
518.532532 1702.789185 -314.643402
522.382568 1783.689209 -313.375397
518.914551 1703.929199 -260.260406
523.319519 1793.919189 -238.518402
525.969543 1856.439209 -291.490387
518.317566 1692.049194 -265.498383
515.059570 1630.399170 -319.920380
526.552551 1865.199219 -264.205383
517.900574 1688.309204 -305.343384
525.435547 1843.909180 -281.540405
513.409546 1598.549194 -342.758392
512.412537 1577.299194 -340.530396
513.365540 1594.039185 -314.805389
526.297546 1863.289185 -291.235382
518.027527 1687.219238 -275.485382
515.527527 1638.659180 -307.760406
513.782532 1604.999268 -331.705383
520.547546 1741.019165 -281.390381
520.352539 1738.089233 -290.890381
518.802551 1700.179199 -249.118378
521.567566 1758.069214 -246.560394
517.762573 1681.569214 -274.875397
517.644531 1688.119263 -346.175385
524.425537 1818.359253 -247.688385
527.094543 1872.019165 -228.050385
526.677551 1866.299194 -251.930389
520.005554 1725.359253 -248.373383
515.735535 1640.929199 -290.903381
526.235535 1850.899170 -204.013397
521.427551 1756.749268 -259.598389
521.704529 1758.609253 -228.060394
522.787537 1789.909180 -295.293396
517.557556 1678.879272 -287.770386
525.752563 1840.579224 -202.700378
525.729553 1854.009277 -312.133392
525.094543 1829.679199 -225.768402
515.817566 1642.009277 -285.750397
519.612549 1720.429199 -274.578400
515.532532 1633.529175 -278.873383
517.554565 1671.639160 -252.450378
519.542542 1711.499268 -231.380402
515.000549 1619.749268 -278.210388
510.000549 1520.839233 -333.933380
514.045532 1602.259277 -291.658386
510.569519 1535.919189 -335.348389
509.397522 1508.549194 -339.850403
515.442566 1633.569214 -283.663391
518.152527 1683.979248 -246.790405
520.957520 1735.139160 -203.913391
513.890564 1595.339233 -284.318390
514.690552 1611.879272 -277.325378
520.917542 1720.929199 -166.885376
524.437561 1792.899170 -133.360382
522.747559 1766.509277 -172.218384
522.817566 1770.789185 -179.693390
525.464539 1821.809204 -145.733398
515.572571 1620.159180 -241.583405
524.282532 1786.579224 -125.963387
525.392517 1816.969238 -137.005371
525.740540 1834.439209 -162.748383
514.744568 1609.759277 -267.593384
527.177551 1860.079224 -138.590393
522.365540 1750.999268 -154.400391
521.050537 1735.509277 -198.905396
526.145569 1829.139160 -120.780388
515.810547 1629.969238 -253.175385
526.675537 1843.919189 -126.835381
522.537537 1758.859253 -164.890381
519.874573 1712.369263 -212.513397
526.367554 1842.949219 -144.648376
524.692566 1791.309204 -111.933388
523.334534 1771.389160 -146.740387
525.037537 1805.699219 -129.200378
521.037537 1733.129272 -192.983398
509.635559 1510.609253 -331.210388
525.995544 1836.469238 -151.375397
526.947571 1844.689209 -110.765388
519.634521 1711.639160 -226.510406
527.062561 1848.559204 -113.993385
521.407532 1730.979248 -162.260376
517.704529 1660.169189 -211.170380
525.537537 1816.059204 -124.835381
515.227539 1612.139160 -244.033386
513.214539 1575.359253 -273.960388
519.592529 1693.439209 -179.525391
508.349548 1481.339233 -338.835388
525.677551 1805.409180 -82.590385
516.719543 1630.989258 -189.233398
514.487549 1595.669189 -246.323395
515.795532 1617.899170 -218.640381
518.462524 1668.049194 -180.198395
520.347534 1706.759277 -165.330383
516.962524 1637.029175 -191.233398
516.164551 1626.189209 -218.315399
519.329529 1684.969238 -170.050385
519.297546 1681.229248 -158.868378
525.435547 1787.029175 -34.320381
515.000549 1602.369263 -227.943390
521.594543 1721.509277 -114.748390
523.295532 1757.879272 -106.820381
512.737549 1564.369263 -277.508392
524.985535 1791.989258 -91.055382
519.074524 1683.109253 -184.748383
519.585571 1692.759277 -177.595398
518.132568 1658.999268 -174.283386
524.392517 1766.479248 -45.933388
521.087524 1712.599243 -124.398384
526.577515 1822.359253 -69.883385
522.122559 1735.919189 -123.983391
513.542542 1578.249268 -261.250397
521.435547 1724.579224 -139.843384
525.417542 1792.629272 -56.870384
516.872559 1642.179199 -218.175385
510.459534 1519.329224 -301.973389
526.337524 1799.949219 -6.275787
525.214539 1792.719238 -74.295387
519.732544 1688.089233 -147.483398
525.830566 1804.989258 -68.143379
526.115540 1812.079224 -70.538383
519.242554 1678.299194 -152.538391
521.847534 1726.559204 -112.318382
520.547546 1705.269165 -142.788391
508.292542 1475.049194 -332.550385
520.194519 1687.909180 -114.458382
509.627563 1501.289185 -310.713379
509.354553 1488.209229 -306.505402
509.405518 1496.969238 -314.395386
513.479553 1565.529175 -234.938385
517.015564 1629.159180 -170.585388
510.557556 1515.779175 -291.318390
523.180542 1707.479248 -23.925781
516.347534 1590.949219 -154.908386
523.959534 1732.469238 -21.378288
522.697571 1715.069214 -49.930382
524.229553 1710.009277 12.539215
525.922546 1759.879272 22.684216
521.889526 1691.829224 -55.408379
511.392517 1519.989258 -264.270386
524.995544 1764.999268 -17.300781
519.820557 1651.119263 -89.343391
525.157532 1768.729248 -15.230782
517.010559 1608.009277 -148.348389
515.920532 1578.979248 -158.143372
510.814514 1509.829224 -274.998383
514.479553 1571.529175 -203.863403
525.497559 1749.889160 17.464214
522.097534 1674.149170 -28.945381
518.432556 1652.729248 -142.748383
522.679565 1718.499268 -54.253380
524.617554 1733.439209 2.124214
518.082520 1614.499268 -115.223381
510.567566 1509.319214 -283.668396
519.354553 1657.099243 -112.968391
522.632568 1686.349243 -21.908287
525.572571 1750.229248 19.844215
526.147522 1766.249268 24.359215
524.110535 1739.609253 -23.368286
524.360535 1712.579224 14.631714
523.354553 1688.319214 2.944214
525.967529 1741.039185 44.356716
525.319519 1726.109253 36.074215
526.347534 1794.149170 2.131714
509.495544 1486.909180 -299.845398
523.944519 1736.159180 -25.880386
515.159546 1570.009277 -176.973389
520.297546 1642.839233 -62.715385
517.962524 1633.379272 -139.730377
518.212524 1623.449219 -119.933388
512.300537 1541.859253 -253.653381
518.322571 1643.329224 -136.885376
511.300537 1513.619263 -260.948395
512.462524 1544.059204 -249.890381
520.772522 1652.439209 -55.285378
527.120544 1745.519165 82.571724
526.892517 1800.529175 15.674217
518.087524 1635.569214 -137.375397
520.557556 1691.089233 -104.243385
516.574524 1616.729248 -173.738373
522.990540 1690.719238 -13.243286
519.792542 1675.859253 -116.640388
513.699524 1561.659180 -222.443390
518.062561 1607.479248 -109.070381
509.619568 1482.079224 -291.303406
508.072571 1460.389160 -325.640381
509.387573 1467.549194 -288.740387
515.245544 1561.389160 -167.013397
516.460571 1584.039185 -143.945374
507.652557 1450.679199 -332.298401
509.909546 1474.439209 -276.893402
519.612549 1627.599243 -73.618385
510.140564 1490.239258 -280.390381
509.752563 1481.939209 -287.003387
510.557556 1481.539185 -261.283386
512.254517 1495.349243 -217.315399
513.325562 1520.659180 -200.333405
511.654541 1492.849243 -234.358398
520.587524 1624.839233 -41.310387
516.674561 1564.539185 -124.298378
518.065552 1597.619263 -102.378380
524.630554 1621.299194 86.846718
519.082520 1584.179199 -61.993385
516.164551 1556.239258 -134.833374
525.209534 1636.669189 94.989212
516.527527 1525.429199 -103.618385
509.349548 1457.889160 -283.553406
522.017517 1659.159180 -18.950783
525.172546 1674.439209 69.421692
521.180542 1584.009277 3.516716
518.522522 1573.229248 -72.343391
519.985535 1598.139160 -42.870384
509.537537 1459.149170 -278.523407
518.462524 1596.509277 -89.260384
515.305542 1539.379272 -150.700378
515.164551 1552.579224 -163.615387
509.897522 1467.779175 -272.883392
519.837524 1622.759277 -63.393379
522.474548 1666.809204 -9.680786
525.372559 1627.709229 105.859215
521.284546 1638.869263 -28.695381
517.440552 1561.709229 -98.620384
522.057556 1616.329224 9.966713
527.055542 1680.859253 123.926712
524.842529 1703.009277 40.679214
523.800537 1679.319214 23.566715
513.745544 1524.749268 -189.845398
521.177551 1613.619263 -15.715782
517.077515 1551.919189 -103.610390
523.914551 1618.729248 66.236710
522.932556 1620.439209 34.579216
522.742554 1602.279175 40.391716
526.769531 1630.359253 147.699219
526.104553 1646.239258 116.724213
524.409546 1656.899170 57.004215
522.962524 1591.969238 53.871616
524.327515 1619.649170 78.551704
518.027527 1551.979248 -74.025383
523.115540 1676.259277 4.151718
524.552551 1663.429199 57.279213
524.014526 1633.019165 60.116714
516.775574 1561.959229 -119.463387
523.729553 1626.889160 55.194214
524.637573 1684.669189 46.174217
525.740540 1688.989258 77.759224
527.112549 1715.879272 103.116814
525.082520 1657.049194 77.901672
524.579529 1689.169189 41.451717
525.014526 1638.739258 87.599213
525.205566 1638.769165 93.494118
525.360535 1713.339233 50.119217
525.130554 1661.609253 76.391739
525.582520 1652.119263 96.656715
523.625549 1622.489258 54.776718
526.777527 1728.049194 84.829216
526.672546 1652.169189 130.586716
524.724548 1693.949219 42.896713
512.065552 1506.009277 -230.053406
525.797546 1698.229248 73.521736
523.089539 1656.779175 15.949215
525.735535 1674.509277 86.911713
524.847534 1690.009277 49.269215
513.240540 1492.489258 -184.800385
507.602539 1418.169189 -318.048401
518.599548 1537.029175 -48.980385
509.904541 1458.749268 -267.198395
519.659546 1549.589233 -23.373283
509.697571 1456.679199 -272.365387
509.985535 1443.549194 -259.633392
509.485535 1439.779175 -272.390381
510.167542 1449.529175 -256.555389
520.080566 1559.119263 -14.905785
509.405518 1439.769165 -274.655396
521.485535 1525.409180 35.736717
515.042542 1490.779175 -133.413391
523.219543 1555.019165 74.596748
524.707520 1491.269165 137.194214
524.180542 1556.709229 100.964218
521.594543 1551.169189 30.354214
518.745544 1478.249268 -25.588387
521.467529 1485.199219 48.406715
513.147522 1440.679199 -170.073395
514.904541 1488.819214 -136.633392
523.482544 1588.459229 70.994202
522.582520 1504.919189 73.201729
526.659546 1522.339233 181.714615
522.749573 1574.309204 55.069214
513.442566 1459.479248 -167.948395
522.000549 1563.779175 37.556816
519.874573 1510.149170 -4.368286
523.055542 1581.049194 61.401714
526.759521 1577.399170 166.441620
516.120544 1495.879272 -104.860390
523.652527 1550.359253 88.249313
525.135559 1594.259277 115.344215
522.697571 1505.339233 76.269173
524.555542 1573.609253 105.916718
522.072571 1571.169189 37.124214
522.652527 1495.179199 78.356697
513.260559 1469.879272 -176.510376
519.162537 1498.629272 -20.558281
515.652527 1500.369263 -119.458382
523.437561 1501.649170 98.196716
513.459534 1454.149170 -165.723389
513.612549 1472.209229 -167.360382
517.637573 1520.609253 -70.490379
516.795532 1465.889160 -76.153389
525.634521 1590.419189 130.621811
519.869568 1513.669189 -5.673286
515.767517 1459.479248 -102.805382
508.564514 1422.709229 -292.503387
526.779541 1541.629272 178.734619
524.115540 1489.429199 121.256615
518.465515 1483.729248 -35.188385
522.550537 1528.899170 64.374214
517.092529 1470.129272 -69.213387
526.992554 1604.179199 164.114212
518.482544 1478.789185 -33.095383
512.654541 1447.159180 -185.988403
516.434570 1462.289185 -85.000389
514.907532 1460.579224 -127.285378
522.784546 1568.089233 58.099216
520.329529 1504.949219 10.109215
525.144531 1507.689209 144.054321
524.757568 1516.019165 130.481720
518.229553 1523.499268 -54.850380
514.817566 1483.179199 -137.213379
523.927551 1487.369263 116.624214
517.959534 1474.589233 -46.378387
524.909546 1498.149170 140.616821
524.339539 1565.559204 102.551712
517.922546 1516.959229 -61.298378
518.977539 1522.329224 -33.495384
518.455566 1494.459229 -39.020386
523.324524 1573.549194 71.489204
523.454529 1537.779175 86.844215
524.524536 1534.799194 117.786713
511.557556 1434.569214 -212.553406
525.050537 1499.719238 144.046722
521.925537 1560.349243 36.569214
524.610535 1536.889160 119.494217
517.092529 1492.979248 -76.693382
520.037537 1465.399170 13.654217
518.024536 1454.169189 -39.700386
512.964539 1437.739258 -174.693390
518.420532 1460.189209 -29.513382
508.357544 1404.429199 -296.295380
518.295532 1453.939209 -32.413383
509.129517 1405.309204 -275.593384
521.870544 1472.809204 62.464214
518.722534 1460.149170 -21.358284
515.252563 1442.139160 -113.458382
508.872559 1416.029175 -283.218384
514.034546 1435.689209 -145.745392
526.062561 1416.809204 178.579620
517.002563 1413.299194 -64.580391
521.937561 1415.049194 67.881729
523.735535 1438.299194 114.709213
526.932556 1433.869263 200.891617
509.047546 1397.909180 -277.315399
526.625549 1461.899170 190.886612
513.452515 1426.259277 -160.770386
525.765564 1481.329224 166.531708
523.032532 1467.759277 93.999214
514.115540 1412.549194 -142.098389
522.017517 1467.569214 66.721687
519.887573 1406.239258 13.341717
517.532532 1438.639160 -51.933388
525.812561 1392.329224 173.434204
522.029541 1472.309204 66.764229
515.727539 1401.549194 -98.110390
518.974548 1433.859253 -12.898285
522.602539 1387.129272 87.504211
513.747559 1422.809204 -152.595398
523.947571 1376.639160 124.304314
525.474548 1483.819214 158.619324
520.522522 1424.039185 29.306816
526.514526 1410.169189 191.134613
518.637573 1430.629272 -21.730782
525.737549 1483.879272 165.656708
523.905518 1407.009277 121.229218
524.865540 1458.799194 143.816711
512.974548 1397.929199 -171.800385
526.070557 1371.509277 181.626617
524.642517 1457.109253 137.931610
511.497559 1415.639160 -212.620392
522.395569 1471.429199 76.666695
520.332520 1403.149170 25.494316
525.832520 1449.619263 170.356720
525.357544 1417.409180 159.626709
526.437561 1444.009277 186.984619
524.479553 1469.089233 132.796722
516.647522 1433.699219 -75.398384
526.352539 1400.579224 187.409607
518.592529 1441.659180 -23.608284
523.135559 1459.199219 97.294220
522.695557 1423.739258 87.676712
513.697571 1390.169189 -151.898376
527.055542 1477.779175 201.431610
526.260559 1443.339233 182.204620
526.694519 1409.979248 195.994614
521.567566 1432.339233 56.896713
523.827515 1427.629272 117.861717
523.329529 1462.159180 102.366714
523.752563 1464.399170 113.579216
515.745544 1396.989258 -97.303383
513.944519 1396.219238 -145.605377
524.060547 1456.879272 122.251717
