ply
format ascii 1.0
element vertex 1388
property float x
property float y
property float z
end_header
992.664062 -1695.098389 -194.212891
948.926086 -1662.138428 -148.746887
952.692078 -1690.438354 -149.134888
953.813049 -1689.858398 -150.679871
966.577087 -1655.868408 -174.533875
965.162048 -1674.868408 -166.350891
969.076050 -1672.538330 -171.532898
962.774048 -1662.338379 -166.447876
941.523071 -1645.988403 -139.830872
996.914062 -1722.638428 -209.953888
1002.850098 -1705.698364 -205.860870
995.065063 -1767.528320 -174.394897
991.601074 -1424.548340 153.704910
916.438049 -1542.078369 72.670113
921.456055 -1526.258423 79.587112
914.289062 -1544.658325 64.142113
926.018066 -1537.478394 97.734016
943.973083 -1474.608398 102.332016
921.564087 -1499.398438 77.241119
937.427063 -1491.358398 98.491013
955.637085 -1484.218384 119.004013
925.056091 -1534.438354 92.557915
929.884094 -1511.428345 91.324913
956.483093 -1505.928345 126.246918
952.480042 -1722.678345 -119.853882
967.669067 -1742.858398 -134.007874
942.691101 -1710.068359 -70.108887
939.272095 -1699.458374 -70.612885
932.156067 -1669.558350 -68.695877
927.800049 -1691.438354 -127.808899
950.374084 -1720.388428 -125.783875
944.012085 -1712.098389 -123.553894
945.846069 -1713.568359 -117.542877
942.263062 -1706.018433 -104.840881
992.560059 -1460.838379 137.001007
1003.096069 -1407.428345 135.912018
992.573059 -1417.328369 86.130913
978.255066 -1463.738403 119.805016
951.386047 -1468.818359 83.626915
957.473083 -1469.878418 95.681015
954.531067 -1474.568359 94.513016
995.737061 -1414.298340 107.325912
986.225098 -1428.428345 101.959915
965.436096 -1455.078369 93.587013
995.579102 -1439.758423 135.720016
999.001099 -1432.788330 139.829010
1003.687073 -1422.088379 147.292023
964.818054 -1463.088379 101.573013
999.608093 -1424.538330 137.847916
917.977051 -1521.968384 57.227119
916.613098 -1527.848389 54.332115
940.141052 -1480.748413 78.765114
929.033081 -1554.398438 27.647110
917.433044 -1594.088379 26.820114
915.829102 -1604.818359 33.801117
923.377075 -1575.928345 11.138123
925.976074 -1600.728394 6.427109
931.348083 -1612.218384 -49.999878
932.076050 -1651.748413 -54.801880
932.095093 -1653.728394 -58.374878
930.602051 -1607.868408 -10.061890
932.295044 -1624.198364 -10.466888
947.533081 -1585.838379 -34.872879
946.214050 -1564.988403 -44.086884
947.587097 -1565.268433 -33.500885
947.681091 -1563.408325 -29.906891
933.268066 -1628.538330 -49.541885
944.095093 -1624.728394 -52.255890
945.101074 -1637.338379 -53.633881
933.809082 -1637.758423 -54.852890
931.418091 -1666.898438 -88.962891
934.047058 -1682.168335 -112.382874
929.096069 -1679.728394 -112.575897
938.532043 -1680.968384 -104.238892
1000.472046 -1761.918335 -169.339874
977.993042 -1731.988403 -146.662872
997.391052 -1757.338379 -164.364899
997.569092 -1754.348389 -175.330872
975.969055 -1706.868408 -171.432892
982.820068 -1718.818359 -175.222870
991.583069 -1714.958374 -189.257874
994.852051 -1704.458374 -195.404877
948.550049 -1698.048340 -135.960876
965.215088 -1716.108398 -143.478882
971.597046 -1721.518433 -151.031891
985.156067 -1728.828369 -172.112885
984.340088 -1740.848389 -144.319885
960.874084 -1719.728394 -82.795898
955.015076 -1513.738403 121.631012
968.866089 -1508.158325 125.457916
975.701050 -1486.828369 139.480911
915.506042 -1613.168335 86.435013
911.628052 -1571.268433 85.734917
913.182068 -1552.618408 50.350113
912.713074 -1554.878418 51.561111
913.309082 -1548.648438 54.303116
911.115051 -1567.928345 53.213120
914.785095 -1554.628418 80.245117
910.359070 -1573.088379 72.528114
910.904053 -1567.818359 70.830116
909.862061 -1585.058350 59.617119
931.486084 -1662.188354 -18.828888
931.977051 -1666.008423 -54.118881
933.040100 -1692.808350 -26.241882
932.886047 -1678.818359 -5.124878
932.175049 -1672.178345 -9.281891
959.551086 -1514.408325 110.029015
942.335083 -1516.638428 85.303017
960.220093 -1520.458374 114.337013
995.492065 -1478.638428 143.162018
967.476074 -1494.878418 114.306915
970.020081 -1484.628418 115.262917
966.819092 -1490.688354 112.696014
932.063049 -1514.628418 71.830116
973.844055 -1501.918335 123.805016
936.282043 -1577.178345 18.980118
931.269043 -1591.058350 33.567108
929.361084 -1611.518433 35.572113
939.679077 -1581.048340 10.590118
931.229065 -1577.488403 34.036118
933.581055 -1608.678345 19.910110
940.068054 -1614.538330 2.083115
933.261047 -1646.818359 4.755112
942.916077 -1631.848389 0.964111
946.734070 -1652.218384 -1.174881
947.820068 -1634.708374 -21.747879
947.412048 -1617.258423 -37.538879
947.046082 -1611.608398 -15.511887
947.741089 -1637.818359 -18.927887
948.267090 -1648.438354 -26.254883
947.408081 -1654.588379 -5.625885
947.486084 -1624.998413 -37.857880
954.798096 -1692.558350 -80.637878
957.088074 -1699.218384 -70.985886
984.387085 -1740.978394 -119.517883
947.951050 -1694.548340 -112.953888
947.959045 -1698.158325 -132.526886
947.328064 -1677.048340 -81.712891
952.417053 -1688.198364 -83.689880
987.703064 -1745.708374 -134.291870
966.573059 -1716.668335 -85.517883
954.337097 -1703.928345 -119.793884
952.415100 -1698.838379 -110.461884
947.105042 -1686.148438 -97.335876
967.266052 -1716.568359 -92.070892
937.861084 -1701.118408 -41.905884
940.825073 -1699.898438 -33.036880
946.298096 -1699.638428 -26.605881
914.981079 -1595.548340 93.139915
915.076050 -1568.288330 94.126915
931.492065 -1552.958374 98.653915
930.039062 -1556.278320 97.458015
923.498047 -1559.078369 96.535019
934.887085 -1692.528320 90.505913
958.607056 -1675.468384 124.535919
949.649048 -1673.748413 114.316917
927.341064 -1672.768433 85.664017
931.990051 -1667.978394 92.863914
947.702087 -1680.278320 110.470917
957.611084 -1693.648438 119.400917
957.994080 -1729.798340 64.429115
942.920044 -1706.568359 48.207123
959.026062 -1731.528320 70.195114
931.663086 -1667.958374 18.248123
932.464050 -1673.008423 14.909119
930.517090 -1676.978394 35.185120
942.963074 -1711.278320 75.194115
949.185059 -1716.148438 46.803116
933.405090 -1686.278320 37.637115
934.749084 -1614.518433 91.006912
931.281067 -1609.898438 80.101112
927.513062 -1593.568359 59.167114
927.661072 -1572.318359 60.964119
933.267090 -1560.308350 92.199013
928.148071 -1561.848389 50.158112
929.137085 -1555.298340 61.236115
931.848083 -1562.658325 88.424919
928.602051 -1606.368408 61.653114
928.390076 -1587.228394 46.831116
927.370056 -1585.968384 63.525116
927.592041 -1584.558350 53.722122
932.168091 -1558.238403 82.996918
927.926086 -1583.258423 79.463120
919.195068 -1666.058350 66.999115
925.439087 -1642.438354 58.706116
922.993042 -1682.898438 66.854118
926.873047 -1686.488403 60.616119
951.505066 -1684.148438 -54.142883
949.278076 -1670.828369 -56.527878
949.743042 -1674.318359 3.659119
949.059082 -1667.328369 -31.860886
949.044067 -1667.608398 -11.828888
953.945068 -1696.378418 0.161118
955.140076 -1724.838379 35.010117
971.877075 -1727.118408 38.095123
984.058044 -1751.998413 73.133118
988.452087 -1694.398438 146.045013
983.576050 -1693.778320 145.727020
956.026062 -1658.878418 123.905014
965.538086 -1654.028320 120.568016
981.729065 -1711.238403 145.522018
973.248047 -1750.218384 84.063919
978.726074 -1741.898438 132.152924
979.802063 -1723.528320 140.996918
976.763062 -1725.748413 135.571915
939.182068 -1698.288330 93.656914
943.456055 -1698.908325 99.741013
964.352051 -1732.958374 104.751015
975.231079 -1726.658325 132.680023
974.889099 -1728.478394 131.308914
979.050049 -1755.758423 112.280914
959.545044 -1704.778320 118.769913
972.592041 -1741.958374 115.061913
946.722046 -1672.318359 90.465019
955.868042 -1680.148438 99.984917
937.962097 -1680.758423 80.334114
955.139099 -1645.348389 108.427017
939.913086 -1629.638428 89.761917
954.918091 -1653.978394 103.261917
957.730042 -1652.378418 108.138016
972.380066 -1692.348389 116.483917
979.818054 -1692.088379 125.011917
970.373047 -1683.538330 115.928917
968.483093 -1721.368408 72.201118
970.570068 -1724.108398 80.657112
972.217041 -1724.858398 38.800110
978.010071 -1732.718384 46.727112
986.062073 -1763.048340 95.371017
987.836060 -1766.918335 111.110016
1000.980042 -1766.788330 110.121017
992.143066 -1767.548340 118.759918
993.983093 -1764.278320 137.115021
989.797058 -1754.488403 149.173019
1001.528076 -1745.868408 153.373917
950.392090 -1698.258423 85.265915
997.463074 -1738.178345 136.201920
976.538086 -1729.908325 92.109917
985.909058 -1742.268433 95.181015
962.940063 -1701.398438 102.014015
981.799072 -1730.198364 108.553917
985.914062 -1733.258423 114.353912
-876.211914 1816.791626 24.934113
-684.281921 1792.621582 24.934113
-857.551941 1871.501587 24.934113
-708.181946 1798.161621 24.934113
-873.581909 1856.351562 24.934113
-870.651917 1808.711670 24.934113
-856.321899 1844.671631 24.934113
-704.801941 1810.361572 24.934113
-859.281921 1843.251587 24.934113
-796.111938 1842.291626 24.934113
-768.451904 1833.391602 24.934113
-866.231934 1797.371582 24.934113
-826.901917 1825.241577 24.934113
-779.681946 1819.051636 24.934113
-772.761902 1830.561646 24.934113
-853.231934 1834.561646 24.934113
-718.521912 1800.691650 24.934113
-739.541931 1785.831665 24.934113
-865.691956 1834.561646 24.934113
-772.681946 1828.841675 24.934113
-864.001953 1821.741577 24.934113
-842.271912 1825.961670 24.934113
-837.111938 1830.651611 24.934113
-719.411926 1820.561646 24.934113
-736.921936 1808.361572 24.934113
-788.011902 1848.131592 24.934113
-840.901917 1860.311646 24.934113
-707.051941 1794.561646 24.934113
-837.501953 1864.651611 24.934113
-738.421936 1834.101562 24.934113
-717.621948 1840.191650 24.934113
-651.931946 1843.071655 24.934113
-818.151917 1862.201660 24.934113
-689.441956 1853.161621 24.934113
-681.731934 1851.761597 24.934113
-625.341919 1867.491577 24.934113
-629.451904 1857.781616 24.934113
-734.491943 1848.161621 24.934113
-766.031921 1874.661621 24.934113
-648.861938 1863.221680 24.934113
-675.531921 1851.561646 24.934113
-684.741943 1844.171631 24.934113
-604.801941 1883.371582 24.934113
-652.621948 1854.241577 24.934113
-676.701904 1845.561646 24.934113
-770.821899 1879.711670 24.934113
-633.561951 1797.341675 24.934113
-642.611938 1845.701660 24.934113
-658.551941 1848.391602 24.934113
-719.821899 1876.741577 24.934113
-637.701904 1821.731567 24.934113
-689.281921 1831.781616 24.934113
-640.581909 1836.571655 24.934113
-656.101929 1805.781616 24.934113
-726.721924 1884.871582 24.934113
-606.891907 1794.481567 24.934113
-853.561951 1885.121582 24.934113
-692.371948 1819.621582 24.934113
-666.961914 1832.271606 24.934113
-608.671936 1785.531616 22.264114
-868.101929 1785.531616 23.895111
-603.501953 1876.981567 24.651123
-682.471924 1885.461670 21.741119
-610.121948 1885.461670 20.035110
-882.511902 1885.461670 24.744110
-893.971924 1877.591675 24.135117
-695.001953 1829.871582 19.934113
-692.491943 1821.841675 19.934113
-825.451904 1808.261597 19.934113
-629.201904 1855.151611 19.934113
-709.001953 1827.291626 19.934113
-713.601929 1823.691650 19.934113
-642.761902 1830.541626 19.934113
-700.751953 1823.931641 19.934113
-649.191956 1789.391602 19.934113
-661.691956 1858.621582 19.934113
-660.181946 1794.501587 19.934113
-632.621948 1851.641602 19.934113
-775.831909 1805.381592 19.934113
-607.141907 1873.811646 19.934113
-738.161926 1830.491577 19.934113
-618.581909 1879.741577 19.934113
-673.211914 1790.981567 19.934113
-627.271912 1826.741577 19.934113
-828.991943 1788.601562 19.934113
-610.171936 1836.311646 19.934113
-657.861938 1834.321655 19.934113
-614.151917 1815.871582 19.934113
-781.641907 1810.531616 19.934113
-722.591919 1796.551636 19.934113
-682.941956 1848.911621 19.934113
-676.061951 1793.391602 19.934113
-629.841919 1819.431641 19.934113
-740.141907 1787.921631 19.934113
-620.241943 1831.801636 19.934113
-645.981934 1834.911621 19.934113
-831.261902 1809.071655 19.934113
-860.891907 1871.711670 19.934113
-887.621948 1883.221680 19.934113
-869.961914 1874.601562 19.934113
-805.931946 1819.371582 19.934113
-633.341919 1880.101562 19.934113
-878.101929 1791.161621 19.934113
-752.811951 1853.701660 19.934113
-747.981934 1865.601562 19.934113
-872.581909 1834.921631 19.934113
-892.261902 1857.011597 19.934113
-839.971924 1860.031616 19.934113
-856.091919 1860.871582 19.934113
-822.601929 1823.871582 19.934113
-887.101929 1833.551636 19.934113
-875.021912 1849.621582 19.934113
-667.961914 1879.131592 19.934113
-810.581909 1860.521606 19.934113
-743.101929 1871.991577 19.934113
-793.471924 1838.971680 19.934113
-847.861938 1857.311646 19.934113
-779.821899 1858.021606 19.934113
-873.181946 1796.751587 19.934113
-844.671936 1837.841675 19.934113
-712.001953 1856.601562 19.934113
-796.271912 1841.231567 19.934113
-773.941956 1854.671631 19.934113
-638.421936 1883.671631 19.934113
-770.611938 1861.641602 19.934113
-810.611938 1826.451660 19.934113
866.473083 1357.721680 -73.706879
866.473083 1334.681641 -108.896881
866.473083 1315.941650 -9.983887
866.473083 1239.981567 -77.272888
866.473083 1432.961670 88.229019
866.473083 1400.341675 58.235115
866.473083 1250.141602 -83.121887
866.473083 1469.931641 -49.675888
866.473083 1517.681641 -10.008881
866.473083 1413.551636 31.829117
866.473083 1294.661621 -126.669891
866.473083 1369.381592 -22.399887
866.473083 1324.091675 -94.842896
866.473083 1285.081665 -147.412872
866.473083 1369.211670 -36.051880
866.473083 1378.491577 -178.398895
866.473083 1404.891602 57.524117
866.473083 1361.491577 20.031113
866.473083 1357.601562 11.605118
866.473083 1344.561646 1.643112
866.473083 1312.681641 -30.965881
866.473083 1315.291626 -36.159882
866.473083 1303.311646 -43.487885
866.473083 1319.041626 -39.761887
866.473083 1312.221680 -45.262878
866.473083 1316.211670 -44.672882
866.473083 1277.291626 -84.164886
866.473083 1431.571655 60.438118
866.473083 1325.341675 -67.225891
866.473083 1385.541626 1.971115
866.473083 1406.651611 27.720123
866.473083 1292.191650 -153.885895
866.473083 1306.541626 -130.340881
866.473083 1353.411621 -69.811890
866.473083 1340.621582 -90.437897
866.473083 1525.401611 -79.783875
866.473083 1390.871582 -136.284882
866.473083 1521.121582 25.211121
866.473083 1436.901611 -48.228882
866.473083 1390.731567 -88.038879
866.473083 1444.941650 -36.712891
866.473083 1424.211670 -59.060883
866.473083 1416.731567 -19.095886
866.473083 1446.771606 20.844116
866.473083 1484.491577 76.398117
866.473083 1398.581665 -36.611877
866.473083 1430.211670 4.713120
866.473083 1401.741577 -27.474884
866.473083 1450.311646 46.880112
866.473083 1435.771606 24.565109
866.473083 1444.241577 45.504120
866.473083 1391.491577 -34.554886
866.473083 1233.041626 1.204117
866.473083 1251.271606 -123.336884
866.473083 1344.511597 -23.257889
866.473083 1326.021606 -46.741882
866.473083 1324.551636 -53.127884
866.473083 1378.081665 3.205109
866.473083 1284.391602 -103.028870
866.473083 1378.001587 0.084122
866.473083 1282.581665 -113.825897
866.473083 1273.271606 -122.989899
866.473083 1344.761597 -180.912872
866.473083 1337.331665 -184.973877
866.473083 1390.141602 -183.810883
866.473083 1406.041626 -184.716888
866.473083 1383.411621 -191.723877
866.473083 1471.321655 -171.506897
866.473083 1394.121582 -160.219879
866.473083 1362.151611 -160.368896
866.473083 1302.501587 -173.932892
866.473083 1540.951660 -51.650879
866.473083 1483.601562 -78.263885
866.473083 1469.521606 -90.952881
866.473083 1463.321655 -78.576874
866.473083 1436.731567 -93.791870
866.473083 1470.321655 -71.293884
866.473083 1501.581665 -47.460892
866.473083 1525.931641 -29.209885
866.473083 1412.971680 3.067108
866.473083 1442.371582 52.660110
866.473083 1469.821655 96.145912
866.473083 1321.751587 -133.582886
866.473083 1408.361572 111.546913
866.473083 1413.101562 95.996017
866.473083 1324.181641 65.845116
866.473083 1347.431641 70.909119
866.473083 1407.331665 -176.721893
866.473083 1449.221680 -176.371887
866.473083 1466.421631 -156.178894
866.473083 1477.741577 -152.308899
866.473083 1422.151611 -158.130890
866.473083 1441.201660 -139.356873
866.473083 1341.571655 -163.465881
866.473083 1373.421631 -154.482880
866.473083 1481.121582 -117.297882
866.473083 1487.601562 -115.717896
866.473083 1524.181641 -71.630890
866.473083 1533.341675 -71.572891
866.473083 1450.101562 -103.577881
866.473083 1456.331665 -87.883881
866.473083 1519.631592 -52.421890
866.473083 1320.331665 -162.414886
866.473083 1428.461670 -101.044891
866.473083 1342.751587 -144.209869
866.473083 1521.111572 -29.269882
866.473083 1487.271606 -45.029877
866.473083 1396.801636 -103.704895
866.473083 1541.291626 -1.132889
866.473083 1508.621582 -9.348877
866.473083 1428.751587 -73.612885
866.473083 1527.391602 11.424118
866.473083 1504.711670 -2.706879
866.473083 1483.611572 -18.623886
866.473083 1496.631592 -4.038879
866.473083 1379.711670 -102.550873
866.473083 1465.311646 -11.846878
866.473083 1478.611572 -0.589890
866.473083 1473.531616 1.699112
866.473083 1428.621582 -40.178879
866.473083 1463.731567 28.878113
866.473083 1473.221680 42.215118
866.473083 1433.121582 -3.804886
866.473083 1492.501587 74.430115
866.473083 1383.701660 96.082016
866.473083 1370.081665 111.683914
866.473083 1292.211670 43.792114
866.473083 1253.771606 26.340118
866.473083 1277.861572 7.532120
866.473083 1414.131592 83.410019
866.473083 1362.191650 51.703110
866.473083 1450.631592 -121.970886
866.473083 1500.121582 -105.388885
866.473083 1422.451660 -129.294891
866.473083 1366.531616 -148.708893
866.473083 1372.721680 -94.033875
866.473083 1488.421631 30.003113
866.473083 1491.491577 26.838120
866.473083 1475.461670 20.769119
866.473083 1476.171631 23.457123
866.473083 1508.221680 69.680115
866.473083 1443.631592 1.807114
866.473083 1436.841675 -6.542877
866.473083 1320.461670 76.078117
866.473083 1363.971680 99.018013
866.473083 1305.031616 78.159119
866.473083 1259.181641 50.917114
866.473083 1408.911621 92.949913
866.473083 1262.781616 27.956116
866.473083 1252.781616 20.365112
866.473083 1250.471680 11.546112
866.473083 1266.251587 17.506119
866.473083 1327.951660 41.694122
866.473083 1313.321655 30.341110
866.473083 1325.281616 36.731110
866.473083 1350.701660 43.146118
866.473083 1279.201660 -5.292877
866.473083 1244.211670 -32.317886
866.473083 1286.311646 -9.589890
866.473083 1237.481567 -46.015884
866.473083 1307.841675 1.096115
866.473083 1306.661621 -0.801880
866.473083 1294.031616 -15.642883
866.473083 1290.621582 -16.876877
866.473083 1303.111572 -14.290878
866.473083 1355.261597 113.754013
859.180054 1544.141602 -15.886887
863.894043 1544.461670 -18.929886
860.488098 1530.941650 -112.046875
864.459045 1409.771606 -197.570892
864.323059 1401.471680 -198.420898
866.436096 1276.471680 -161.840881
857.634094 1291.321655 -172.964874
859.827087 1351.391602 -195.966888
859.441101 1370.341675 -198.446899
866.319092 1258.701660 -143.045898
857.605042 1247.301636 -125.669891
865.305054 1235.911621 -100.047882
861.250061 1230.921631 -82.564880
861.250061 1226.021606 -42.343887
858.806091 1226.221680 -30.241882
861.233093 1229.731567 -1.442886
862.443054 1232.061646 8.728119
861.527100 1236.451660 22.988113
862.229065 1268.281616 75.601112
858.902100 1271.211670 78.505119
865.943054 1310.201660 104.694016
859.891052 1335.111572 113.686012
864.001099 1340.831665 115.183014
865.515076 1415.821655 118.157013
864.531067 1408.401611 119.189911
856.473083 1267.311646 -54.262878
856.473083 1282.991577 -38.704880
856.473083 1531.421631 -64.332886
856.473083 1320.771606 -42.543884
856.473083 1298.741577 -76.449890
856.473083 1260.691650 -57.503891
856.473083 1315.651611 -84.908875
856.473083 1235.821655 -25.785889
856.473083 1233.491577 -26.088882
856.473083 1237.491577 -32.058884
856.473083 1461.411621 -51.375885
856.473083 1238.871582 -21.384888
856.473083 1260.241577 -15.381882
856.473083 1494.871582 -53.990891
856.473083 1238.731567 11.787109
856.473083 1523.561646 -68.961884
856.473083 1522.571655 -69.866882
856.473083 1484.641602 -67.718887
856.473083 1440.371582 -65.744888
856.473083 1513.691650 -77.096893
856.473083 1481.241577 -120.851898
856.473083 1497.601562 -129.632874
856.473083 1317.141602 48.102112
856.473083 1370.081665 4.347122
856.473083 1244.541626 12.377121
856.473083 1329.861572 109.658913
856.473083 1412.381592 82.053116
856.473083 1346.761597 7.992111
856.473083 1289.661621 -0.864883
856.473083 1493.421631 19.054123
856.473083 1511.421631 13.432114
856.473083 1368.591675 2.050110
856.473083 1416.971680 6.916122
856.473083 1480.761597 0.402115
856.473083 1289.561646 -4.640884
856.473083 1300.571655 -5.933884
856.473083 1498.521606 -3.103882
856.473083 1528.781616 -13.851883
856.473083 1500.111572 -14.278885
856.473083 1528.421631 -10.402878
856.473083 1383.011597 -12.338882
856.473083 1513.091675 -19.568878
856.473083 1339.651611 -11.287888
856.473083 1504.811646 -28.283890
856.473083 1535.551636 -26.246887
856.473083 1437.651611 -20.006882
856.473083 1356.681641 -152.854889
856.473083 1327.371582 -135.340881
856.473083 1283.091675 52.680115
856.473083 1302.531616 53.084122
856.473083 1259.091675 3.734116
856.473083 1367.021606 -86.849884
856.473083 1339.951660 -75.656891
856.473083 1404.561646 -104.108887
856.473083 1429.511597 -140.434875
856.473083 1384.521606 -120.389893
856.473083 1427.271606 -172.464874
856.473083 1421.481567 -169.644897
856.473083 1421.601562 -173.633881
856.473083 1291.101562 82.211014
856.473083 1311.591675 78.895119
856.473083 1321.841675 85.884018
856.473083 1342.131592 88.793015
856.473083 1317.511597 61.673119
856.473083 1319.691650 59.405113
856.473083 1369.671631 92.855919
856.473083 1351.381592 76.009117
856.473083 1234.091675 -3.247879
856.473083 1368.851562 75.186119
856.473083 1405.561646 96.091919
856.473083 1388.991577 80.358116
856.473083 1250.121582 4.286118
856.473083 1350.741577 58.138115
856.473083 1448.811646 96.418015
856.473083 1389.661621 67.148117
856.473083 1365.211670 52.636108
856.473083 1268.261597 10.306122
856.473083 1383.941650 59.260117
856.473083 1402.091675 65.409119
856.473083 1299.891602 21.537109
856.473083 1375.271606 29.200119
856.473083 1471.881592 50.855118
856.473083 1484.901611 48.622116
856.473083 1482.551636 43.578110
856.473083 1337.391602 12.456116
856.473083 1520.491577 44.438110
856.473083 1398.271606 -24.460892
856.473083 1496.731567 -34.669891
856.473083 1472.611572 -30.375885
856.473083 1513.751587 -40.016891
856.473083 1536.531616 -47.432892
856.473083 1248.361572 -9.229889
856.473083 1433.971680 -35.020889
856.473083 1505.651611 -48.503891
856.473083 1494.661621 -50.655884
856.473083 1397.291626 -84.266876
856.473083 1481.901611 -109.835876
856.473083 1489.621582 -112.771881
856.473083 1313.801636 -61.293884
856.473083 1450.111572 -109.478882
856.473083 1443.671631 -105.608887
856.473083 1300.491577 -64.677887
856.473083 1462.861572 -133.230896
856.473083 1439.651611 -153.203888
856.473083 1337.551636 -104.160889
856.473083 1410.601562 -172.926880
856.473083 1370.641602 -185.954895
856.473083 1271.321655 -128.045898
856.473083 1278.981567 -128.356873
856.473083 1334.271606 -148.425873
856.473083 1330.821655 -122.247894
856.473083 1270.501587 -78.509888
856.473083 1260.731567 -71.617889
856.473083 1327.201660 -125.388885
856.473083 1256.641602 34.600113
856.473083 1269.171631 50.283112
856.473083 1287.451660 87.548019
856.473083 1378.591675 49.949112
856.473083 1437.311646 67.243118
856.473083 1423.231567 60.628113
856.473083 1454.521606 66.567116
856.473083 1247.051636 -0.846878
856.473083 1511.721680 34.728119
856.473083 1447.621582 24.367111
856.473083 1339.731567 7.672119
856.473083 1303.171631 -47.212891
856.473083 1431.391602 -71.696884
856.473083 1367.991577 -59.760880
856.473083 1427.231567 -74.338898
856.473083 1441.281616 -76.445892
856.473083 1485.451660 -99.626892
856.473083 1417.841675 -82.052887
856.473083 1305.591675 -53.984879
856.473083 1312.501587 -57.687881
856.473083 1417.191650 -88.078888
856.473083 1478.001587 -146.949890
856.473083 1496.061646 -158.261871
856.473083 1412.501587 -120.962891
856.473083 1400.541626 -118.331879
856.473083 1449.341675 -167.468872
856.473083 1346.151611 -113.226898
856.473083 1457.341675 -181.447876
856.473083 1453.471680 -183.057892
856.473083 1357.201660 -125.966888
856.473083 1398.501587 -184.588898
856.473083 1335.261597 -153.305878
856.473083 1350.811646 -157.358887
856.473083 1384.921631 -172.654877
856.473083 1232.591675 -80.854889
856.473083 1256.121582 -86.761871
856.473083 1256.991577 -84.115875
856.473083 1283.011597 -98.844879
856.473083 1251.831665 38.772110
856.473083 1416.971680 49.886108
856.473083 1481.881592 66.167114
856.473083 1412.781616 41.755112
856.473083 1507.901611 68.665115
856.473083 1295.731567 -48.161880
856.473083 1435.461670 -82.783875
856.473083 1447.701660 -87.224884
856.473083 1309.281616 -52.958878
856.473083 1258.861572 -128.787872
856.473083 1291.791626 -148.228882
856.473083 1272.411621 -137.150879
856.473083 1331.331665 -173.438873
856.473083 1280.491577 -143.415894
856.473083 1349.731567 -194.648895
856.473083 1341.411621 -192.942871
856.473083 1287.721680 -154.421875
856.473083 1287.121582 -165.140869
-902.941956 1946.021606 -179.710876
-902.941956 1934.351562 -143.462891
-902.941956 1916.971680 -161.552887
-902.941956 1949.771606 -186.903870
-902.941956 1909.941650 -186.470886
-902.941956 1940.011597 -185.644897
-902.941956 1962.041626 -113.223877
-902.941956 1941.891602 -183.184875
-902.941956 1909.881592 -110.285889
-902.941956 1891.901611 -114.114899
-902.941956 1884.751587 -138.906891
-902.941956 1913.601562 -114.656891
-902.941956 1895.551636 -122.136871
-902.941956 1878.001587 -176.336884
-902.941956 1937.351562 -114.230896
-903.771912 1877.711670 -121.506897
-906.481934 1877.711670 -164.098877
-906.991943 1877.711670 -155.552887
-918.021912 1877.711670 -128.616882
-919.301941 1877.711670 -115.264893
-927.771912 1877.711670 -130.965881
-913.381958 1951.031616 -188.889893
-905.631958 1964.401611 -188.889893
-916.991943 1918.001587 -188.889893
-908.451904 1906.151611 -188.889893
-926.001953 1886.381592 -188.889893
-933.311951 1900.751587 -188.889893
-922.741943 1897.101562 -188.889893
-929.891907 1966.621582 -122.069885
-914.511902 1966.621582 -122.918884
-923.871948 1966.621582 -112.195892
-928.351929 1966.621582 -146.377899
-935.961914 1966.621582 -141.727875
-930.891907 1966.621582 -161.129883
-913.231934 1910.481567 -107.671875
-908.001953 1924.851562 -107.671875
-907.721924 1907.611572 -107.671875
-925.831909 1936.821655 -107.671875
-933.541931 1936.401611 -107.671875
-933.481934 1950.071655 -107.671875
-936.821899 1919.721680 -167.104889
-936.821899 1884.231567 -148.334869
-936.821899 1879.461670 -181.660889
-936.821899 1892.281616 -171.280884
-936.821899 1887.401611 -166.047882
-936.821899 1879.021606 -177.217896
-936.821899 1890.251587 -180.291870
-936.821899 1934.871582 -116.388885
-936.821899 1948.331665 -113.077881
-936.821899 1942.281616 -164.646881
-936.821899 1929.921631 -131.022888
-936.821899 1905.741577 -126.368896
-936.821899 1942.761597 -129.471893
-936.821899 1951.801636 -119.969879
522.924072 1803.911621 -167.626892
509.070068 1864.571655 -192.061890
523.661072 1806.211670 -157.498871
480.210083 2011.541626 -224.004883
490.133057 1959.041626 -214.555878
513.874084 1856.861572 -169.493896
507.968079 1890.411621 -173.441895
497.576080 1942.141602 -187.276886
502.534058 1913.791626 -183.855896
497.849060 1936.331665 -190.904877
485.486084 2005.531616 -200.007874
494.127075 1953.061646 -197.249878
486.410065 2004.881592 -195.476898
479.896057 2019.901611 -218.504883
479.137085 2028.391602 -215.437897
479.644073 2024.151611 -216.269897
508.495056 1872.211670 -187.673889
504.379059 1886.801636 -198.447876
481.388062 2002.241577 -225.731873
481.052063 2004.051636 -226.013885
476.177063 2026.071655 -233.907898
483.399078 1986.101562 -228.760895
491.184082 1941.281616 -224.731873
468.508057 2043.321533 -261.290894
472.931061 2016.831665 -259.895874
524.576111 1827.121582 -159.991882
495.663086 1989.651611 -180.767883
505.270081 1915.331665 -171.062897
506.871063 1907.851562 -170.120880
468.415070 2057.161621 -276.179871
486.049072 2029.361572 -197.664886
494.671082 1931.061646 -223.724884
485.177063 1964.941650 -238.054871
522.148071 1842.311646 -163.964874
515.062073 1858.711670 -192.801880
504.265076 1906.551636 -210.572876
506.974060 1902.241577 -198.697876
512.778076 1880.391602 -184.763885
487.479065 1980.191650 -239.300873
473.778076 2037.261719 -265.512878
490.349060 1967.381592 -234.627899
478.167084 2041.701660 -237.551880
481.465057 2019.481567 -238.379883
488.059082 1984.771606 -231.717896
471.452057 2047.991699 -269.143890
480.092072 2031.851562 -235.371887
497.385071 1956.261597 -204.586884
499.213074 1948.881592 -200.718872
495.965057 1978.501587 -193.230896
493.186066 1985.461670 -202.611877
496.298065 1968.231567 -200.088898
492.574066 2004.121582 -190.194885
490.356079 2018.771606 -189.989899
520.406067 1835.851562 -182.920898
525.835083 1813.171631 -171.931885
528.331116 1803.581665 -165.683899
520.078064 1841.841675 -178.114899
510.081085 1906.191650 -176.548889
508.208069 1915.851562 -178.709869
506.532074 1925.981567 -179.378876
236.864090 1807.471680 -138.165894
168.070084 1808.301636 -137.626892
99.887680 1807.861572 -137.936890
423.015076 1809.661621 -136.656891
465.917084 1810.061646 -136.332886
242.980087 1811.191650 -135.423889
276.986084 1811.971680 -134.733887
373.958069 1812.191650 -134.540894
534.515076 1805.221680 -139.576874
357.511078 1807.031616 -138.452881
547.566101 1807.981567 -137.849884
243.553085 1804.661621 -139.894897
291.712067 1803.721680 -140.381897
556.018066 1802.451660 -141.008881
583.431091 1803.201660 -140.644897
230.019089 1799.361572 -142.353882
265.080078 1799.791626 -142.181885
60.687782 1800.921631 -141.713898
170.131088 1797.981567 -142.860870
517.884094 1798.131592 -142.801880
122.168076 1796.191650 -143.455872
576.474060 1800.591675 -141.885895
532.702087 1795.981567 -143.546875
561.352051 1795.741577 -143.616882
335.306061 1794.711670 -143.890869
404.358063 1793.581665 -144.208893
561.591064 1792.381592 -144.540894
124.158081 1789.771606 -145.029877
96.497681 1789.701660 -145.044891
167.825089 1789.031616 -145.175873
417.683075 1788.821655 -145.211884
511.783081 1786.691650 -145.522888
305.280060 1787.231567 -145.451874
558.565063 1783.531616 -145.762878
302.006073 1785.441650 -145.645874
179.230087 1780.291626 -145.893890
114.157684 1780.391602 -145.897888
412.029083 1781.541626 -145.882874
192.310089 1782.091675 -145.846893
60.947681 1785.721680 -145.631897
119.747681 1784.431641 -145.708893
254.313080 1776.251587 -145.750885
567.456055 1776.181641 -145.782898
493.749084 1777.221680 -145.800873
266.376068 1775.541626 -145.713898
286.073059 1774.751587 -145.620880
90.187790 1773.741577 -145.504883
163.223083 1770.991577 -145.113892
124.798080 1764.761597 -143.697876
599.698059 1774.621582 -145.603882
469.841064 1773.341675 -145.421875
597.524048 1774.191650 -145.554871
476.694061 1769.281616 -144.824890
117.987686 1767.091675 -144.320892
236.167084 1767.361572 -144.375885
329.870056 1766.021606 -143.982880
394.334076 1765.911621 -144.000885
524.015076 1766.311646 -144.151886
411.734070 1764.901611 -143.729889
205.071091 1763.351562 -143.266876
278.518066 1761.321655 -142.529877
456.433075 1761.661621 -142.637878
324.893066 1759.261597 -141.688873
329.972076 1759.011597 -141.587891
399.356079 1760.221680 -142.084869
109.667786 1757.771606 -141.037872
112.167786 1754.951660 -139.591888
290.826080 1755.601562 -139.892883
294.078064 1754.381592 -139.234894
528.587097 1753.741577 -138.850891
135.598083 1753.711670 -138.840881
404.046082 1752.691650 -138.181885
155.234085 1751.261597 -137.213898
457.295074 1751.101562 -137.056885
268.428070 1751.311646 -137.196899
190.344086 1749.171631 -135.562897
378.822083 1750.041626 -136.285889
108.297775 1747.591675 -134.190887
428.447083 1747.411621 -133.996887
270.270081 1746.881592 -133.523895
603.183044 1759.031616 -83.411896
602.040100 1772.791626 -105.419891
602.429077 1736.601562 -97.930878
602.208069 1775.921631 -102.187897
602.973083 1778.471680 -87.453888
603.006042 1770.721680 -86.827881
601.167053 1741.971680 -122.225891
600.247070 1792.241577 -139.931885
601.291077 1773.561646 -119.837891
601.099060 1759.511597 -123.524872
603.809082 1815.991577 -71.374878
603.101074 1799.321655 -84.998871
600.121094 1783.351562 -142.351898
155.672089 1741.891602 -127.348877
171.092087 1743.161621 -129.139893
194.111084 1742.911621 -128.786896
554.082092 1743.601562 -129.759888
539.933044 1743.841675 -130.048889
71.627686 1743.711670 -129.902893
498.616058 1745.701660 -132.272888
63.307781 1746.241577 -132.835876
332.048065 1745.781616 -132.333893
348.396057 1746.431641 -133.068878
292.595062 1741.551636 -126.746887
344.202057 1742.071655 -127.535889
292.253082 1740.871582 -125.688873
61.187782 1738.981567 -122.153870
191.412094 1739.061646 -122.164886
382.732086 1738.711670 -121.453888
473.186066 1739.511597 -123.199890
258.245087 1738.301636 -120.498871
201.788086 1738.221680 -120.306885
531.659058 1738.371582 -120.589874
449.049072 1738.031616 -119.700897
542.894043 1737.451660 -118.356873
443.192078 1736.671631 -116.089874
589.658081 1737.691650 -119.038879
287.979065 1736.421631 -115.234894
406.199066 1736.271606 -114.801880
151.588089 1735.651611 -112.136871
298.333069 1735.881592 -113.015869
563.368042 1735.791626 -112.790894
437.895081 1735.461670 -111.339874
515.594116 1736.111572 -114.007874
407.974060 1735.201660 -110.178894
75.977684 1734.561646 -105.841888
344.839081 1734.751587 -107.006897
106.557785 1734.691650 -106.857880
571.352051 1735.031616 -109.261871
311.960083 1734.351562 -97.776886
144.948090 1734.391602 -96.592896
321.391083 1734.421631 -103.632874
527.214111 1734.731567 -106.706879
136.428085 1734.371582 -102.754883
388.717072 1734.381592 -103.032898
364.082062 1734.341675 -102.091888
166.830093 1734.341675 -99.469879
111.857681 1734.361572 -98.133881
358.875061 1734.341675 -101.137878
549.033081 1734.461670 -95.861877
372.137085 1734.361572 -97.561890
301.110077 1734.491577 -95.368896
153.389084 1734.491577 -95.261871
170.180084 1734.661621 -93.806885
288.084076 1734.641602 -93.863892
529.182068 1734.811646 -92.365875
82.937782 1735.071655 -90.694885
548.322083 1735.361572 -89.322876
481.539062 1735.301636 -89.584869
263.629089 1735.721680 -87.735870
261.025085 1735.981567 -86.692871
280.101074 1736.101562 -86.148895
359.422058 1736.301636 -85.401886
542.700073 1736.301636 -85.398895
252.268082 1736.671631 -84.159882
235.138092 1736.961670 -83.202881
369.934082 1737.441650 -81.785889
129.668076 1738.291626 -79.678894
394.478058 1738.401611 -79.464874
582.356079 1738.181641 -79.962891
249.164093 1739.321655 -77.345886
549.059082 1739.221680 -77.524872
388.265076 1739.651611 -76.653870
278.610077 1740.421631 -75.248871
584.166077 1740.121582 -75.837891
215.594086 1741.051636 -74.148895
302.341064 1741.511597 -73.418884
178.807083 1741.901611 -72.836884
490.331085 1742.081665 -72.536880
523.702087 1742.881592 -71.420883
388.043060 1742.411621 -72.061890
352.253082 1743.701660 -70.271881
234.929092 1744.511597 -69.275879
336.549072 1744.041626 -69.836884
473.291077 1746.061646 -67.522888
376.963074 1745.701660 -67.905884
266.917084 1746.681641 -66.836884
60.357681 1805.511597 -66.126877
60.357681 1754.321655 -133.426880
60.357681 1747.001587 -97.555878
60.357681 1756.421631 -63.896881
60.357681 1755.571655 -72.853882
60.357681 1793.351562 -68.600891
60.357681 1736.101562 -106.384888
60.357681 1737.961670 -84.709869
60.357681 1743.241577 -117.566895
60.357681 1767.581665 -59.426880
60.357681 1781.221680 -61.184891
60.357681 1808.401611 -96.403870
60.357681 1757.851562 -102.590881
60.357681 1787.611572 -115.560883
547.773071 1819.291626 -74.392883
404.601074 1818.791626 -73.643890
426.034058 1818.581665 -73.324890
370.309082 1818.361572 -72.998886
424.940063 1817.591675 -71.768890
279.382080 1816.881592 -70.825882
178.590088 1817.081665 -71.108887
462.006073 1816.351562 -70.129883
505.057068 1815.151611 -68.666885
271.154083 1814.721680 -68.189880
210.140091 1814.091675 -67.484879
557.742065 1819.771606 -75.254883
391.689056 1820.731567 -77.045898
396.257080 1821.201660 -78.099884
492.921082 1821.181641 -78.065887
160.070084 1822.501587 -81.199890
176.302094 1822.621582 -81.496887
231.937088 1822.971680 -82.473877
438.580078 1823.491577 -83.995880
386.177063 1823.261597 -83.352875
116.817780 1823.881592 -85.346893
496.962067 1823.651611 -84.449890
365.722076 1824.161621 -86.320892
365.580078 1824.371582 -87.159882
114.267685 1824.341675 -86.929871
233.314087 1824.901611 -89.615875
415.224060 1824.681641 -88.418884
478.007080 1825.131592 -90.765869
312.148071 1825.301636 -91.806885
300.874084 1825.401611 -92.597870
459.343079 1825.511597 -93.571899
360.969086 1825.531616 -93.673889
484.719086 1825.781616 -96.219879
282.978058 1825.701660 -95.222870
468.577057 1825.771606 -103.537872
432.298065 1825.861572 -102.110870
188.426086 1825.821655 -97.480896
90.887680 1825.831665 -97.751892
598.394043 1825.861572 -98.895874
89.947678 1825.881592 -100.645874
303.730072 1825.911621 -100.526886
276.897064 1825.881592 -101.329895
501.424072 1825.471680 -107.054871
535.506042 1825.421631 -107.447876
412.681061 1825.421631 -107.378876
169.688080 1825.591675 -105.844879
291.892059 1825.381592 -107.667877
447.729065 1825.241577 -108.764893
273.167084 1823.891602 -114.498871
145.848083 1824.001587 -114.365875
216.554092 1824.171631 -113.663879
133.468079 1824.991577 -110.152893
450.278076 1824.091675 -114.022888
454.359070 1823.691650 -115.442871
447.709076 1823.321655 -116.676880
360.085083 1823.661621 -115.526886
142.718079 1823.161621 -117.141876
127.188080 1822.361572 -119.433899
342.936066 1822.651611 -118.535889
283.414062 1822.081665 -119.882874
161.022079 1821.531616 -121.294891
163.464081 1821.421631 -121.558899
264.445068 1820.941650 -122.662872
131.318085 1820.191650 -124.145874
437.131073 1819.221680 -125.838898
363.704071 1818.521606 -126.957886
295.356079 1818.391602 -127.155884
405.014069 1818.231567 -127.420898
254.970093 1816.551636 -129.789886
545.561096 1817.221680 -128.872894
117.217682 1814.761597 -131.993896
84.967682 1814.951660 -131.758881
174.168091 1814.431641 -132.331879
344.234070 1813.461670 -133.380890
572.486084 1814.451660 -132.273895
301.248077 1756.911621 -59.605881
105.487686 1757.341675 -59.316879
259.991089 1755.261597 -60.429886
192.167084 1755.301636 -60.416885
454.814056 1753.301636 -61.620880
200.786087 1754.261597 -61.013885
246.848083 1754.021606 -61.165878
228.575089 1752.661621 -61.991882
334.283081 1751.201660 -63.041885
149.898087 1752.301636 -62.259888
384.427063 1750.121582 -63.846878
455.426086 1749.791626 -64.117889
262.694092 1749.301636 -64.483887
114.387680 1749.171631 -64.604889
165.318085 1748.741577 -64.980881
592.986084 1756.341675 -59.848877
395.097076 1757.911621 -59.086884
510.732086 1757.011597 -59.522888
99.387680 1759.751587 -58.259888
323.159058 1760.291626 -58.022888
383.556061 1760.731567 -57.843887
446.039062 1762.941650 -57.012878
103.347687 1763.631592 -56.817886
292.758057 1764.841675 -56.451889
338.903076 1766.061646 -56.097885
484.796082 1765.891602 -56.151886
134.368088 1767.621582 -55.693878
253.152084 1769.201660 -55.374878
467.912079 1770.411621 -55.145889
472.740082 1770.251587 -55.176880
304.189056 1771.101562 -55.011887
596.083069 1772.131592 -54.827881
162.136093 1772.891602 -54.732880
481.027069 1773.981567 -54.591888
159.368088 1775.841675 -54.463882
219.372086 1774.511597 -54.543884
396.466064 1777.591675 -54.356888
225.949081 1777.281616 -54.377884
237.618088 1778.651611 -54.294891
599.475098 1778.031616 -54.327881
189.537094 1782.211670 -54.347885
365.546082 1780.431641 -54.299881
576.989075 1781.131592 -54.316879
482.558075 1782.481567 -54.352890
240.497086 1787.151611 -54.753891
540.056091 1784.851562 -54.488892
382.155060 1787.131592 -54.751877
446.159058 1788.191650 -54.872879
443.835083 1788.051636 -54.856888
86.957687 1790.401611 -55.227890
591.731079 1791.021606 -55.381882
177.245087 1794.381592 -56.184891
87.457687 1791.921631 -55.552887
395.120056 1793.531616 -55.957886
205.061081 1795.081665 -56.342880
596.662048 1796.561646 -56.820877
234.697083 1796.551636 -56.819885
258.643066 1797.391602 -57.101883
176.083084 1797.541626 -57.153885
266.613068 1800.171631 -58.176880
486.331085 1801.481567 -58.696884
425.926086 1799.571655 -57.925888
210.909088 1801.011597 -58.531891
64.517685 1803.001587 -59.409882
294.011078 1803.601562 -59.677887
488.608063 1806.031616 -61.056885
197.260086 1805.201660 -60.562881
597.631042 1806.561646 -61.369888
356.513062 1807.151611 -61.749878
182.695084 1806.921631 -61.611877
463.940063 1808.851562 -62.926880
489.910065 1807.871582 -62.230881
424.984070 1810.531616 -64.180878
177.494080 1810.641602 -64.297882
573.062073 1812.661621 -66.065887
431.319061 1811.611572 -65.112885
244.540085 1813.321655 -66.654877
-855.481934 1870.221680 -147.970886
-874.271912 1898.041626 -147.970886
-877.611938 1890.431641 -147.970886
-706.181946 1875.391602 -147.970886
-765.051941 1862.181641 -147.970886
-856.641907 1879.131592 -147.970886
-871.011902 1934.941650 -147.970886
-771.091919 1909.141602 -147.970886
-864.111938 1863.051636 -147.970886
-882.881958 1892.511597 -147.970886
-760.681946 1886.891602 -147.970886
-742.061951 1874.991577 -147.970886
-678.521912 1863.861572 -147.970886
-654.161926 1870.011597 -147.970886
-854.831909 1905.651611 -147.970886
-762.621948 1862.551636 -147.970886
-722.151917 1886.421631 -147.970886
-843.621948 1892.041626 -147.970886
-889.491943 1873.141602 -147.970886
-816.501953 1910.181641 -147.970886
-771.101929 1865.211670 -147.970886
-861.191956 1936.521606 -147.970886
-885.681946 1860.411621 -147.970886
-736.271912 1884.951660 -147.970886
-813.501953 1917.471680 -147.970886
-636.951904 1865.171631 -147.970886
-815.331909 1898.401611 -147.970886
-836.401917 1895.801636 -147.970886
-815.041931 1902.101562 -147.970886
-907.501953 1880.121582 -147.970886
-865.071899 1891.591675 -147.970886
-782.111938 1890.971680 -147.970886
-820.291931 1875.541626 -147.970886
-930.191956 1956.401611 -147.970886
-665.761902 1935.621582 -147.970886
-833.391907 1943.761597 -147.970886
-781.701904 1938.781616 -147.970886
-626.831909 1885.701660 -147.970886
-675.271912 1917.431641 -147.970886
-637.861938 1886.891602 -147.970886
-738.441956 1917.141602 -147.970886
-618.961914 1877.591675 -147.970886
-648.531921 1949.431641 -147.970886
-725.711914 1904.801636 -147.970886
-907.551941 1956.681641 -147.970886
-811.591919 1938.841675 -147.970886
-813.111938 1948.751587 -147.970886
-691.341919 1953.151611 -147.970886
-813.371948 1930.101562 -147.970886
-757.901917 1925.121582 -147.970886
-629.271912 1889.501587 -147.970886
-777.571899 1951.031616 -147.970886
-867.971924 1941.321655 -147.970886
-685.251953 1934.361572 -147.970886
-797.901917 1931.531616 -147.970886
-646.231934 1900.901611 -147.970886
-864.711914 1950.921631 -147.970886
-890.841919 1948.291626 -147.970886
-712.811951 1920.641602 -147.970886
-681.401917 1906.791626 -147.970886
-685.441956 1928.361572 -147.970886
-639.751953 1914.171631 -147.970886
-665.411926 1910.531616 -147.970886
-623.751953 1945.511597 -147.970886
-825.711914 1928.001587 -147.970886
-695.491943 1909.361572 -147.970886
-680.361938 1924.351562 -147.970886
-607.511902 1874.521606 -147.970886
-707.681946 1858.931641 -150.809875
-902.831909 1858.931641 -148.665894
-603.501953 1885.031616 -148.881897
-603.501953 1956.451660 -151.470886
-879.711914 1958.871582 -152.572876
-730.581909 1958.871582 -150.702881
-774.811951 1958.871582 -148.156891
-846.261902 1958.871582 -150.953888
-931.591919 1888.871582 -150.682892
-611.791931 1879.041626 -152.970886
-694.421936 1895.341675 -152.970886
-649.471924 1935.011597 -152.970886
-708.341919 1878.161621 -152.970886
-695.811951 1859.511597 -152.970886
-686.441956 1881.051636 -152.970886
-674.091919 1914.341675 -152.970886
-721.141907 1912.331665 -152.970886
-776.481934 1886.461670 -152.970886
-605.901917 1860.341675 -152.970886
-630.141907 1870.911621 -152.970886
-733.021912 1871.211670 -152.970886
-858.361938 1859.651611 -152.970886
-660.591919 1923.591675 -152.970886
-682.071899 1913.851562 -152.970886
-866.101929 1863.001587 -152.970886
-631.071899 1875.981567 -152.970886
-639.931946 1931.271606 -152.970886
-888.381958 1865.531616 -152.970886
-604.251953 1905.661621 -152.970886
-698.021912 1861.731567 -152.970886
-723.451904 1881.531616 -152.970886
-616.901917 1932.111572 -152.970886
-725.141907 1865.771606 -152.970886
-864.201904 1859.381592 -152.970886
-783.641907 1860.631592 -152.970886
-642.291931 1897.511597 -152.970886
-676.451904 1932.001587 -152.970886
-645.831909 1892.011597 -152.970886
-756.971924 1904.181641 -152.970886
-657.751953 1859.501587 -152.970886
-700.631958 1892.081665 -152.970886
-642.831909 1929.841675 -152.970886
-637.141907 1860.401611 -152.970886
-704.391907 1941.361572 -152.970886
-792.411926 1916.441650 -152.970886
-861.071899 1889.561646 -152.970886
-675.501953 1955.441650 -152.970886
-691.461914 1942.891602 -152.970886
-876.721924 1945.001587 -152.970886
-714.791931 1937.291626 -152.970886
-797.741943 1903.781616 -152.970886
-913.631958 1883.581665 -152.970886
-765.541931 1916.991577 -152.970886
-740.211914 1936.961670 -152.970886
-847.741943 1944.951660 -152.970886
-906.681946 1928.131592 -152.970886
-748.271912 1934.971680 -152.970886
-900.551941 1930.021606 -152.970886
-864.921936 1931.671631 -152.970886
-713.891907 1929.801636 -152.970886
-878.031921 1952.571655 -152.970886
-775.251953 1925.231567 -152.970886
-835.231934 1911.841675 -152.970886
-867.151917 1932.571655 -152.970886
-836.681946 1937.661621 -152.970886
-901.541931 1899.361572 -152.970886
-664.491943 1952.831665 -152.970886
-924.361938 1901.531616 -152.970886
-912.401917 1896.571655 -152.970886
-722.541931 1923.311646 -152.970886
-805.931946 1939.941650 -152.970886
-811.051941 1956.031616 -152.970886
-919.671936 1892.671631 -152.970886
-875.741943 1919.071655 -152.970886
-808.051941 1908.261597 -152.970886
-909.791931 1893.531616 -152.970886
-807.881958 1926.681641 -152.970886
311.342072 1766.181641 103.276016
295.485077 1765.381592 34.209122
289.433075 1774.611572 13.364120
304.053070 1769.761597 73.813118
307.035065 1760.991577 81.640114
289.301086 1775.801636 13.481110
305.915070 1778.181641 86.739914
299.278076 1778.341675 58.119118
288.505066 1793.541626 20.299118
303.527069 1764.061646 68.242119
288.373077 1765.181641 3.320114
298.426086 1772.601562 51.110123
297.756073 1785.581665 55.720116
310.791077 1745.741577 89.065918
269.883087 1773.731567 -71.727890
296.714081 1740.341675 25.040115
279.759064 1748.911621 -43.356888
303.548065 1733.041626 50.385117
270.162079 1778.251587 -67.907883
292.173065 1754.801636 13.756119
276.159088 1758.781616 -53.219879
289.753082 1728.711670 -11.800888
265.092072 1792.121582 -81.813873
311.195068 1734.261597 84.173019
280.175079 1760.541626 -34.831879
287.674072 1763.811646 -0.489883
312.000061 1733.601562 87.278915
273.213074 1795.151611 -43.590881
267.512085 1794.821655 -51.683884
313.695068 1749.701660 106.996918
290.132080 1727.871582 -1.472885
288.235077 1727.631592 2.350113
277.617065 1779.051636 -12.818878
272.149078 1740.161621 -58.974884
269.311066 1776.541626 -50.201889
267.594086 1775.021606 -58.511887
288.589081 1788.981567 40.396118
276.766083 1747.911621 -34.514877
294.479065 1784.631592 63.362114
270.680084 1761.511597 -52.974884
267.886078 1740.491577 -77.227875
282.483063 1760.081665 -2.740891
263.824066 1771.851562 -76.658875
263.685089 1761.811646 -83.065887
260.785065 1790.291626 -79.141876
267.883087 1749.431641 -72.064880
301.201080 1755.741577 75.735115
274.132080 1736.781616 -52.348877
293.625061 1763.961670 47.711121
297.632080 1763.221680 64.619118
279.049072 1731.721680 -34.002884
275.623077 1740.281616 -43.870880
301.449066 1751.621582 74.424118
293.632080 1767.161621 49.592117
293.025085 1750.691650 37.434113
278.694061 1736.161621 -32.969879
308.723083 1744.801636 101.949013
307.207062 1743.681641 94.739914
