ply
format ascii 1.0
element vertex 1331
property float x
property float y
property float z
end_header
-666.867920 1569.739990 -375.962738
-639.348938 1545.250000 -353.714752
-639.311951 1541.959961 -345.343750
-638.327942 1550.270020 -379.536743
-635.431946 1534.369995 -373.426758
-636.858948 1537.309937 -352.686737
-645.400940 1561.390015 -368.719757
-647.262939 1551.459961 -331.236755
-635.298950 1534.910034 -378.735748
-635.199951 1527.049927 -360.948761
-635.934937 1517.369995 -389.605743
-638.855957 1495.140015 -373.528748
-637.908936 1495.579956 -360.097748
-640.642944 1487.679932 -372.693756
-646.723938 1473.770020 -371.672760
-649.746948 1469.459961 -370.795746
-687.204956 1560.549927 -340.124756
-685.106934 1570.049927 -361.054749
-686.762939 1565.770020 -342.793762
-697.330933 1573.329956 -356.295746
-687.905945 1566.809937 -347.163757
-695.150940 1562.599976 -331.794739
-704.663940 1571.250000 -350.197754
-704.731934 1560.689941 -326.883759
-716.666931 1557.549927 -312.518738
-743.115967 1547.229980 -302.646759
-692.673950 1557.709961 -328.853760
-732.460938 1533.119995 -274.878754
-722.934937 1541.839966 -283.055756
-717.085938 1554.630005 -305.323761
-716.712952 1548.660034 -305.548737
-665.739929 1569.179932 -371.096741
-816.444946 1574.689941 -360.129761
-775.129944 1561.489990 -320.124756
-778.720947 1545.920044 -305.947754
-757.131958 1539.270020 -277.804749
-817.103943 1562.699951 -325.769745
-793.679932 1555.199951 -307.046753
-765.798950 1545.130005 -287.312744
-831.225952 1575.219971 -368.489746
-781.778931 1555.670044 -327.342743
-851.762939 1552.839966 -350.746765
-857.296936 1541.569946 -355.315765
-853.546936 1556.329956 -372.744751
-855.085938 1545.609985 -350.415741
-849.663940 1550.979980 -337.411743
-837.991943 1568.309937 -353.503754
-859.686951 1526.400024 -361.121765
-859.705933 1522.410034 -354.212738
-858.585938 1507.410034 -385.295746
-859.246948 1511.260010 -379.461761
-859.766968 1506.939941 -353.270752
-856.766968 1497.219971 -384.373749
-853.731934 1487.979980 -388.441742
-846.082947 1471.150024 -373.676758
-807.627930 1562.849976 -348.183746
-824.676941 1558.020020 -337.492737
-819.494934 1566.459961 -344.392761
-776.869934 1565.089966 -337.713745
-778.280945 1555.859985 -326.084747
-772.344971 1546.880005 -304.811737
-761.603943 1558.439941 -319.503754
-759.752930 1551.479980 -309.792755
-817.224915 1556.729980 -322.083740
-810.981934 1563.500000 -332.708740
-824.693970 1560.989990 -336.963745
-799.453918 1554.380005 -310.035767
-800.276917 1549.920044 -313.097748
-805.824951 1563.949951 -329.004761
-808.791931 1560.549927 -332.977753
-806.275940 1557.229980 -316.677765
-778.330933 1552.369995 -304.555756
-824.824951 1568.809937 -351.295746
-673.449951 1584.979980 -414.480743
-693.932922 1585.750000 -410.468750
-729.897949 1577.260010 -364.494751
-714.613953 1567.929932 -360.667755
-739.720947 1563.609985 -324.097748
-722.782959 1569.179932 -338.404755
-728.450928 1570.069946 -340.686737
-668.464966 1582.910034 -403.314758
-714.793945 1570.219971 -369.652740
-746.283936 1566.900024 -358.296753
-746.501953 1563.599976 -348.430756
-740.449951 1574.000000 -353.355743
-695.989929 1573.750000 -386.511749
-642.499939 1564.890015 -404.027740
-703.906921 1578.140015 -411.390747
-639.360962 1560.929932 -436.355743
-637.285950 1555.760010 -434.429749
-635.465942 1544.150024 -426.016754
-646.171936 1571.819946 -437.491760
-658.793945 1582.299927 -417.058746
-635.294922 1542.089966 -417.492737
-635.205933 1539.150024 -412.107758
-634.858948 1531.429932 -430.722748
-635.960938 1522.439941 -421.501740
-635.296936 1525.510010 -406.090759
-637.340942 1514.809937 -433.660767
-639.179932 1504.660034 -429.838745
-652.142944 1479.179932 -413.188751
-702.871948 1576.020020 -380.508759
-704.741943 1581.709961 -404.440765
-704.766968 1576.589966 -379.042755
-716.664917 1583.189941 -392.383759
-718.026917 1571.699951 -360.661743
-733.444946 1565.469971 -350.302765
-661.463928 1575.569946 -398.942749
-735.257935 1575.069946 -375.043762
-735.257935 1556.260010 -326.748749
-682.374939 1576.640015 -373.832764
-686.631958 1572.179932 -376.100739
-677.798950 1576.359985 -392.596741
-703.666931 1572.329956 -357.657745
-704.609924 1577.359985 -366.046753
-688.792969 1575.420044 -371.352753
-725.213928 1565.599976 -331.189758
-666.147949 1579.750000 -425.073761
-815.582947 1585.939941 -418.611755
-797.897949 1585.089966 -404.248749
-776.940918 1580.429932 -377.971741
-781.660950 1566.530029 -356.358765
-753.882935 1561.359985 -319.125763
-846.041931 1570.760010 -387.087738
-799.127930 1580.439941 -378.695740
-764.207947 1566.839966 -332.287750
-781.793945 1572.239990 -378.506744
-755.262939 1567.630005 -334.145752
-797.530945 1573.479980 -384.965759
-851.496948 1566.229980 -403.392761
-784.283936 1577.369995 -404.599762
-812.298950 1578.910034 -428.671753
-853.387939 1561.750000 -394.855743
-858.266968 1547.109985 -392.550751
-846.913940 1574.540039 -419.242737
-850.155945 1565.679932 -389.764740
-847.087952 1569.880005 -388.625763
-859.705933 1537.099976 -409.645752
-859.835938 1527.760010 -390.630737
-859.646912 1522.829956 -421.721741
-858.455933 1509.160034 -394.883759
-857.436951 1507.359985 -418.588745
-849.606934 1486.770020 -416.593750
-849.579956 1484.770020 -405.860748
-844.651917 1480.559937 -413.741760
-809.950928 1573.719971 -387.808746
-828.080933 1577.359985 -426.070740
-824.465942 1576.229980 -411.333740
-825.798950 1579.420044 -419.709747
-797.455933 1583.209961 -414.358765
-801.845947 1577.099976 -389.536743
-797.621948 1576.530029 -385.638763
-790.173950 1576.099976 -386.451752
-790.155945 1577.390015 -396.223755
-778.292969 1572.469971 -370.459747
-761.629944 1574.910034 -356.827759
-830.971924 1576.959961 -398.064758
-840.689941 1575.650024 -399.511749
-759.752930 1574.839966 -368.098755
-759.752930 1571.489990 -367.466766
-790.209961 1571.109985 -361.477753
-777.827942 1567.839966 -340.808746
-761.615967 1556.579956 -324.369751
-825.245972 1579.280029 -410.131744
-644.130920 1514.569946 -274.034760
-677.459961 1526.329956 -261.583771
-698.646912 1506.630005 -235.829773
-686.656921 1521.199951 -253.953766
-732.027954 1478.339966 -207.410767
-717.741943 1494.650024 -222.759766
-736.434937 1453.390015 -187.541763
-718.683960 1478.130005 -207.115768
-710.772949 1500.339966 -240.463760
-710.299927 1492.989990 -232.615768
-749.595947 1458.809937 -201.855774
-649.054932 1506.559937 -252.576767
-735.241943 1471.420044 -212.282761
-639.229919 1503.209961 -275.057739
-640.082947 1490.199951 -255.350769
-641.754944 1514.250000 -279.533752
-635.325928 1487.500000 -281.550751
-635.395935 1476.380005 -266.926758
-635.721924 1499.000000 -292.605743
-645.101929 1518.489990 -278.103760
-654.882935 1517.729980 -259.065765
-636.405945 1462.489990 -287.608765
-637.740967 1465.189941 -303.760742
-638.231934 1453.199951 -292.338745
-638.445923 1442.489990 -282.292755
-639.817932 1453.339966 -305.685760
-643.475952 1447.569946 -314.211761
-645.168945 1431.790039 -299.324738
-686.014954 1510.819946 -252.680771
-666.797913 1523.369995 -272.067749
-726.869934 1476.369995 -206.311768
-661.689941 1494.199951 -232.134766
-735.257935 1487.609985 -217.197769
-735.257935 1449.329956 -192.902771
-735.257935 1463.429932 -203.863770
-743.115967 1482.329956 -211.697769
-669.369934 1502.089966 -243.677765
-731.246948 1451.439941 -195.358765
-724.901917 1475.420044 -206.911774
-670.986938 1510.119995 -248.632767
-828.528931 1529.410034 -267.228760
-817.679932 1513.179932 -244.715775
-802.087952 1522.089966 -254.526764
-794.674927 1507.040039 -236.259766
-772.183960 1492.390015 -220.224762
-803.861938 1497.359985 -226.126770
-790.724915 1484.920044 -213.482773
-830.985962 1528.630005 -267.239746
-758.067932 1492.140015 -219.781769
-842.053955 1510.869995 -251.814774
-805.246948 1498.489990 -239.161774
-852.236938 1497.530029 -255.128769
-816.124939 1501.489990 -243.357773
-858.996948 1485.140015 -273.978760
-848.643921 1510.459961 -263.362762
-848.043945 1511.880005 -263.825745
-847.443970 1494.939941 -242.093765
-838.569946 1496.299927 -232.411774
-839.679932 1512.719971 -252.089767
-840.960938 1502.959961 -250.583771
-859.955933 1461.189941 -273.406738
-859.416931 1457.770020 -279.678741
-857.315918 1466.640015 -313.018738
-857.396912 1442.969971 -283.289764
-853.275940 1448.059937 -310.736755
-854.231934 1437.959961 -295.268738
-844.500916 1439.439941 -319.375763
-845.703918 1431.829956 -307.951752
-808.856934 1499.319946 -240.205765
-806.264954 1521.939941 -268.069763
-806.324951 1521.849976 -267.951752
-818.254944 1527.209961 -263.671753
-790.174927 1496.349976 -233.067764
-774.564941 1504.959961 -234.715775
-778.287964 1500.079956 -237.815765
-778.332947 1488.109985 -218.542770
-846.879944 1489.619995 -236.599762
-759.752930 1491.459961 -220.628769
-808.912964 1487.390015 -225.040771
-793.500916 1481.140015 -213.043762
-790.335938 1481.250000 -212.537766
-761.565918 1457.030029 -198.925766
-773.921936 1477.329956 -211.843765
-829.934937 1526.829956 -265.899750
-680.733948 1544.109985 -288.256744
-682.283936 1554.849976 -308.024750
-702.136963 1541.790039 -283.141754
-694.330933 1548.729980 -295.425751
-724.166931 1526.829956 -259.803772
-662.067932 1539.900024 -285.856750
-744.639954 1492.949951 -232.121765
-695.543945 1532.559937 -268.778748
-726.205933 1514.849976 -244.443771
-665.172913 1554.420044 -311.516754
-705.095947 1535.869995 -289.005737
-713.684937 1532.199951 -282.530762
-746.438965 1514.819946 -257.790771
-743.438965 1500.469971 -240.465775
-743.049927 1527.280029 -260.082764
-667.073914 1536.000000 -292.475739
-716.952942 1538.130005 -291.620758
-702.918945 1544.910034 -304.620758
-662.548950 1551.020020 -322.921753
-641.856934 1521.929932 -290.847748
-639.575928 1512.609985 -286.645752
-636.236938 1525.280029 -333.134766
-644.911926 1536.630005 -308.006744
-648.088928 1528.459961 -284.676758
-644.745972 1526.770020 -290.837738
-635.288940 1511.890015 -320.520752
-635.053955 1501.040039 -313.580750
-635.546936 1487.369995 -311.220764
-638.346924 1485.939941 -344.281738
-637.725952 1484.619995 -334.280762
-636.778931 1480.609985 -317.011749
-639.432922 1471.670044 -329.304749
-641.084961 1471.369995 -339.207764
-641.689941 1459.559937 -322.375763
-648.286926 1460.959961 -349.064758
-687.927917 1535.410034 -288.704742
-668.788940 1545.500000 -310.276764
-671.457947 1547.369995 -298.578766
-688.512939 1537.390015 -291.387756
-694.096924 1533.569946 -282.252747
-716.723938 1521.049927 -263.619751
-731.496948 1510.170044 -244.141769
-733.434937 1523.939941 -266.348755
-667.812927 1532.819946 -272.975739
-669.171936 1535.069946 -282.239746
-656.489929 1528.260010 -278.826752
-743.115967 1496.439941 -226.820770
-743.115967 1510.270020 -247.832764
-685.876953 1533.729980 -281.028748
-728.902954 1499.280029 -229.570770
-716.726929 1512.839966 -253.462769
-668.070923 1546.000000 -308.140747
-666.059937 1553.619995 -312.629761
-851.667969 1533.869995 -307.496765
-823.699951 1555.270020 -311.039764
-799.267944 1540.500000 -281.110748
-770.887939 1533.280029 -269.128754
-763.849915 1530.819946 -265.288757
-843.569946 1534.569946 -288.109741
-812.225952 1537.520020 -277.117737
-802.876953 1535.449951 -273.290741
-763.834961 1499.299927 -226.954773
-759.259949 1514.219971 -243.879761
-841.674927 1536.209961 -298.712738
-798.565918 1548.030029 -311.317749
-842.090942 1550.530029 -328.098755
-856.046936 1534.000000 -328.061737
-855.136963 1536.719971 -328.682739
-847.210938 1538.059937 -301.567749
-849.059937 1523.890015 -283.063751
-841.419922 1532.069946 -280.333740
-836.116943 1539.390015 -286.911743
-839.245972 1552.650024 -315.480743
-835.906921 1555.760010 -317.785767
-859.955933 1504.989990 -338.657745
-859.806946 1494.839966 -306.438751
-858.506958 1492.500000 -345.606750
-859.606934 1497.329956 -335.731750
-849.789917 1469.420044 -357.610748
-845.101929 1458.150024 -347.305756
-846.153931 1455.209961 -339.846741
-825.474915 1550.599976 -306.238739
-824.281921 1543.920044 -305.069763
-808.492920 1549.660034 -308.734741
-775.315918 1539.959961 -285.263763
-778.278931 1521.119995 -265.199768
-761.564941 1513.549927 -254.586761
-844.687927 1535.299927 -292.769745
-759.752930 1504.599976 -242.273773
-759.752930 1500.709961 -238.148773
-751.893921 1482.619995 -220.281769
-751.893921 1503.079956 -240.778763
-811.988953 1527.369995 -268.606750
-795.411926 1520.969971 -257.473755
-790.360962 1527.069946 -262.618774
-762.459961 1496.780029 -225.905762
-778.311951 1514.989990 -250.921768
-830.884949 1542.479980 -295.239746
-824.450928 1541.650024 -298.968750
-643.692932 1419.239990 -188.488770
-701.152954 1406.750000 -160.983765
-692.130920 1419.630005 -167.813766
-731.496948 1392.449951 -154.113770
-721.634949 1390.920044 -153.433762
-699.264954 1395.530029 -155.806763
-728.927917 1354.699951 -141.036774
-708.449951 1403.329956 -168.125763
-713.777954 1403.780029 -168.334763
-684.757935 1407.589966 -170.895767
-665.407959 1413.569946 -175.703766
-734.780945 1392.020020 -162.695770
-638.179932 1427.559937 -207.096771
-636.809937 1426.920044 -212.037766
-635.406921 1406.729980 -210.030762
-647.132935 1401.859985 -173.710770
-635.120972 1409.140015 -218.153763
-634.926941 1409.630005 -224.588760
-635.525940 1395.900024 -224.075760
-643.046936 1367.920044 -246.964767
-647.304932 1379.510010 -261.320770
-652.369934 1381.959961 -268.713745
-669.796936 1431.839966 -181.475769
-704.772949 1409.979980 -167.449768
-733.407959 1370.030029 -148.869766
-735.257935 1375.890015 -148.284760
-743.115967 1385.339966 -152.073761
-685.240967 1402.170044 -162.408768
-696.427917 1386.410034 -152.678772
-704.742920 1384.309937 -154.981766
-733.436951 1359.179932 -148.642761
-716.667969 1366.660034 -145.148773
-814.402954 1420.890015 -169.108765
-764.016968 1374.920044 -147.447769
-831.751953 1406.939941 -164.376770
-819.413940 1408.049927 -162.801773
-815.465942 1398.160034 -157.909760
-764.687927 1362.809937 -143.297760
-833.877930 1429.859985 -177.263763
-834.830933 1438.770020 -183.034760
-779.789917 1388.939941 -161.610764
-759.044922 1384.049927 -150.987762
-844.828918 1439.579956 -191.147766
-842.052917 1442.010010 -196.175766
-853.901917 1416.369995 -192.016769
-853.531921 1407.449951 -185.876770
-858.436951 1415.809937 -207.983765
-859.455933 1387.199951 -201.182770
-858.146912 1397.839966 -195.289764
-858.856934 1426.900024 -218.530762
-849.405945 1419.780029 -185.608765
-848.502930 1427.380005 -188.705765
-848.061951 1398.199951 -172.212769
-848.069946 1412.020020 -181.345764
-840.328918 1414.739990 -172.016769
-837.182922 1417.589966 -179.554764
-859.806946 1397.540039 -214.872772
-859.306946 1392.989990 -228.942764
-850.887939 1392.260010 -264.811768
-850.781921 1374.359985 -254.025772
-806.996948 1419.140015 -177.140762
-823.212952 1402.670044 -169.570770
-810.007935 1433.530029 -182.014771
-790.339966 1407.459961 -163.295761
-790.126953 1407.429932 -169.275772
-770.054932 1406.179932 -163.113770
-770.158936 1375.380005 -153.657761
-761.627930 1380.410034 -149.863770
-761.593933 1384.540039 -155.378769
-825.137939 1400.439941 -161.226761
-823.814941 1399.530029 -167.271774
-841.033936 1401.589966 -165.930771
-751.893921 1338.709961 -138.503769
-751.893921 1345.229980 -142.716766
-751.893921 1385.799927 -152.040771
-762.051941 1346.069946 -145.051773
-765.220947 1368.900024 -145.566772
-765.389954 1367.130005 -152.030762
-680.688965 1472.020020 -203.667770
-673.579956 1473.449951 -205.401764
-691.673950 1462.119995 -194.949768
-725.595947 1439.079956 -178.363770
-717.952942 1459.020020 -192.184769
-749.242920 1400.900024 -166.605774
-663.169922 1488.170044 -220.570770
-747.569946 1414.890015 -174.038773
-739.648926 1439.689941 -178.718765
-695.260925 1480.849976 -221.187759
-684.940918 1486.099976 -226.662766
-635.799927 1457.439941 -244.383774
-636.890930 1446.059937 -225.416763
-654.136963 1474.979980 -213.886765
-635.103943 1444.349976 -243.989761
-634.897949 1442.079956 -251.322769
-635.906921 1434.359985 -254.297760
-636.676941 1434.250000 -261.781769
-637.234924 1426.979980 -259.177765
-636.719971 1414.569946 -246.092773
-639.801941 1430.640015 -280.401764
-640.210938 1405.369995 -260.550751
-649.281921 1413.929932 -289.731750
-669.969971 1488.410034 -230.370773
-668.754944 1490.270020 -222.820770
-682.278931 1484.130005 -220.653763
-673.333923 1466.479980 -206.562759
-704.132935 1474.329956 -209.267761
-686.444946 1482.069946 -213.123764
-696.981934 1452.739990 -197.383774
-726.742920 1457.280029 -191.437759
-716.663940 1459.420044 -192.854767
-730.867920 1419.500000 -173.598770
-733.431946 1432.660034 -181.313766
-733.413940 1426.569946 -175.301773
-663.507935 1448.429932 -196.266769
-735.257935 1439.349976 -183.714767
-743.115967 1425.359985 -172.217773
-670.939941 1455.390015 -199.962769
-687.496948 1447.199951 -193.607773
-717.151917 1414.969971 -172.512772
-733.410950 1408.540039 -164.998764
-717.943970 1430.569946 -179.921768
-667.189941 1482.260010 -215.195770
-820.548950 1472.319946 -204.282761
-774.379944 1440.619995 -179.167770
-764.903931 1434.949951 -175.976761
-835.105957 1459.699951 -197.494766
-789.580933 1434.880005 -185.527771
-782.082947 1429.489990 -181.918762
-846.297913 1458.439941 -206.433762
-809.839966 1450.359985 -186.818771
-803.858948 1454.559937 -189.432770
-766.183960 1413.079956 -163.520767
-833.481934 1479.989990 -213.844772
-779.989929 1436.010010 -186.006760
-842.254944 1485.040039 -224.265762
-790.927917 1444.520020 -191.797760
-822.860962 1487.359985 -229.117767
-813.074951 1483.199951 -224.143768
-855.496948 1458.859985 -226.622772
-858.955933 1456.729980 -243.586761
-859.756958 1448.119995 -248.620773
-859.725952 1425.329956 -228.747772
-858.205933 1425.459961 -261.787750
-859.266968 1437.880005 -261.796753
-859.575928 1419.750000 -243.512772
-858.116943 1426.549927 -263.467773
-858.116943 1409.549927 -250.072769
-847.766968 1398.179932 -273.842743
-809.089966 1472.489990 -208.542770
-790.720947 1472.780029 -210.769760
-807.337952 1482.589966 -217.654770
-795.575928 1451.799927 -194.829773
-790.341919 1458.489990 -194.152771
-778.301941 1440.069946 -185.183762
-759.752930 1445.819946 -182.843765
-759.752930 1422.130005 -170.382767
-751.893921 1396.689941 -159.664764
-751.893921 1416.890015 -168.330765
-809.530945 1451.619995 -189.414764
-799.176941 1437.520020 -181.587769
-791.542969 1447.420044 -185.096771
-805.152954 1454.939941 -192.839767
-775.356934 1412.989990 -169.699768
-778.285950 1425.250000 -177.948761
-825.173950 1469.609985 -203.423767
-829.002930 1483.540039 -222.207764
-651.595947 1273.709961 -236.700760
-650.921936 1079.839966 -354.050751
-652.137939 1057.339966 -444.501740
-650.936951 1085.609985 -554.745789
-651.953918 1093.380005 -567.280762
-652.427917 1110.589966 -589.344788
-650.759949 1329.170044 -652.376770
-652.594971 1400.949951 -615.393799
-651.161926 1468.679932 -375.325745
-649.611938 1065.729980 -393.260742
-649.611938 1072.849976 -524.655762
-649.611938 1473.579956 -501.187744
-649.611938 1397.719971 -280.986755
-655.856934 1329.299927 -262.452759
-652.364929 1191.309937 -265.417755
-652.853943 1177.069946 -272.660767
-652.692932 1127.780029 -308.920746
-652.298950 1071.280029 -468.736755
-652.574951 1071.579956 -428.817749
-654.657959 1079.390015 -499.011749
-653.629944 1146.559937 -603.919800
-653.479919 1105.979980 -560.629761
-654.724915 1347.510010 -629.338806
-653.074951 1360.750000 -625.134766
-652.664917 1408.969971 -590.713806
-653.288940 1391.359985 -605.271790
-652.233948 1453.609985 -525.884766
-652.254944 1460.790039 -504.884766
-655.366943 1444.650024 -360.944763
-651.952942 1364.520020 -272.781738
-653.890930 1355.170044 -270.528748
-652.548950 1396.619995 -295.316742
-669.231934 1230.670044 -263.490753
-670.627930 1259.920044 -259.975769
-664.880920 1172.660034 -284.465759
-661.752930 1105.439941 -349.331757
-663.137939 1148.270020 -300.508759
-666.303955 1095.630005 -371.355743
-669.632935 1081.189941 -432.253754
-663.337952 1078.229980 -451.867737
-670.960938 1080.739990 -443.965759
-667.153931 1097.010010 -528.264771
-665.153931 1109.290039 -552.183777
-666.731934 1084.780029 -493.779755
-668.020935 1142.819946 -589.775757
-669.093933 1157.170044 -601.214783
-663.766968 1192.170044 -623.604797
-664.574951 1179.780029 -617.301758
-667.275940 1230.140015 -634.503784
-666.672913 1239.479980 -636.439758
-670.469971 1259.179932 -637.522766
-661.400940 1332.790039 -629.916809
-664.005920 1359.530029 -617.387756
-662.491943 1306.530029 -636.555786
-666.256958 1392.339966 -594.160767
-668.514954 1409.679932 -576.447754
-664.850952 1370.170044 -610.660767
-668.192932 1435.260010 -541.221802
-664.684937 1445.429932 -523.104797
-669.168945 1433.329956 -543.956787
-664.820923 1456.089966 -489.407745
-663.828918 1448.030029 -380.259766
-666.428955 1424.130005 -337.893738
-665.421936 1418.809937 -330.306763
-661.690918 1411.910034 -320.082764
-663.439941 1352.479980 -276.325745
-661.150940 1397.130005 -305.382751
-707.755920 1300.929932 -268.279755
-679.796936 1302.959961 -264.877747
-712.798950 1294.130005 -267.693756
-731.713928 1293.260010 -270.088745
-721.660950 1301.880005 -270.338745
-760.210938 1291.809937 -273.723755
-708.991943 1284.429932 -266.196747
-717.867920 1282.660034 -267.219757
-744.559937 1341.959961 -285.619751
-729.594971 1338.040039 -281.971741
-726.788940 1331.530029 -279.058746
-728.580933 1330.219971 -278.806763
-740.572937 1322.170044 -277.667755
-698.256958 1319.949951 -271.186737
-713.590942 1315.459961 -272.033752
-679.288940 1244.739990 -263.196747
-710.772949 1240.569946 -268.236755
-688.924927 1239.770020 -265.431763
-737.296936 1229.559937 -273.886749
-740.307922 1230.089966 -274.195740
-688.679932 1218.549927 -270.033752
-765.354919 1220.489990 -280.088745
-709.025940 1269.979980 -265.760742
-713.506958 1268.790039 -266.357758
-724.533936 1263.750000 -267.827759
-747.919922 1266.270020 -270.935760
-703.443970 1260.650024 -265.026764
-692.359924 1249.979980 -264.406769
-752.457947 1258.699951 -271.621765
-739.181946 1247.040039 -270.939758
-749.283936 1251.040039 -271.915741
-751.651917 1181.760010 -294.538757
-684.819946 1170.010010 -291.369751
-712.298950 1169.949951 -295.704742
-766.837952 1172.920044 -302.393738
-759.559937 1177.349976 -298.512756
-729.460938 1161.640015 -304.156738
-752.687927 1159.900024 -309.347748
-709.408936 1157.000000 -304.314758
-733.210938 1208.130005 -279.748749
-679.809937 1197.280029 -276.345764
-701.616943 1195.119995 -280.297760
-722.109924 1200.900024 -280.976746
-730.077942 1191.119995 -286.335754
-765.366943 1192.599976 -290.846741
-704.356934 1125.679932 -334.588745
-700.417969 1123.890015 -336.092743
-688.000916 1126.010010 -330.548737
-758.459961 1126.010010 -346.093750
-761.710938 1130.329956 -341.085754
-687.304932 1108.910034 -354.828766
-716.647949 1117.979980 -347.590759
-713.557922 1112.699951 -355.346741
-688.679932 1140.989990 -314.694763
-726.198914 1151.660034 -311.702759
-751.521912 1146.619995 -320.864746
-694.377930 1137.869995 -318.563751
-754.512939 1142.239990 -325.533752
-714.338928 1136.359985 -324.051758
-760.981934 1138.559937 -330.858765
-728.036926 1096.869995 -396.287750
-683.832947 1089.369995 -401.168762
-749.025940 1100.119995 -395.069763
-712.723938 1091.670044 -407.150757
-682.783936 1085.699951 -416.706757
-688.021912 1086.160034 -418.022766
-737.817932 1093.199951 -416.450745
-733.495972 1112.299927 -361.328766
-727.059937 1111.880005 -360.263763
-738.234924 1107.819946 -371.775757
-759.911926 1112.619995 -368.589752
-730.533936 1103.369995 -378.663757
-678.820923 1093.150024 -386.024750
-748.849915 1101.739990 -389.675751
-700.517944 1085.679932 -459.679749
-694.621948 1084.729980 -457.974762
-755.497925 1093.469971 -464.439758
-722.949951 1089.280029 -466.199738
-712.500916 1089.890015 -481.614746
-755.230957 1094.979980 -477.916748
-755.983948 1096.459961 -485.251740
-705.546936 1087.579956 -424.544739
-715.234924 1088.199951 -431.850739
-740.621948 1091.630005 -431.445740
-760.077942 1094.010010 -433.846741
-752.078918 1092.160034 -443.840759
-751.452942 1092.069946 -443.268738
-739.776917 1090.530029 -449.088745
-742.090942 1090.839966 -455.480743
-731.166931 1107.699951 -527.543762
-758.776917 1108.349976 -520.630737
-759.325928 1115.489990 -534.786804
-746.957947 1113.199951 -533.876770
-679.017944 1113.229980 -551.675781
-757.947937 1116.150024 -536.436768
-752.018921 1117.689941 -540.428772
-713.021912 1094.369995 -499.625763
-701.499939 1092.920044 -500.128754
-739.574951 1098.869995 -502.538757
-766.376953 1101.869995 -500.057739
-748.120972 1101.199951 -506.527740
-736.278931 1101.540039 -511.907745
-694.718933 1098.040039 -518.177795
-752.127930 1106.429932 -518.656738
-683.671936 1098.140015 -522.477783
-697.968933 1138.689941 -579.002808
-721.767944 1141.969971 -577.706787
-695.705933 1150.910034 -590.529785
-708.973938 1153.799927 -590.780762
-746.811951 1157.209961 -587.041809
-749.345947 1161.109985 -589.558777
-684.057922 1123.049927 -563.814758
-752.079956 1122.569946 -548.191772
-724.440918 1126.630005 -559.649780
-731.447937 1126.079956 -557.375793
-688.954956 1129.530029 -570.899780
-754.949951 1134.910034 -563.771790
-721.312927 1139.839966 -575.798767
-717.900940 1204.469971 -618.449768
-680.333923 1200.880005 -622.418762
-708.454956 1210.020020 -621.943787
-738.397949 1212.699951 -618.709778
-680.251953 1215.709961 -627.759766
-750.512939 1218.299927 -618.774780
-722.806946 1167.599976 -598.634766
-690.132935 1172.719971 -606.905762
-708.105957 1170.469971 -602.706787
-767.773926 1172.880005 -594.866760
-757.715942 1177.160034 -599.080811
-716.591919 1189.459961 -612.273804
-746.528931 1186.949951 -606.575806
-751.386963 1189.400024 -607.070801
-692.651917 1267.510010 -633.858765
-732.558960 1261.609985 -628.555786
-710.455933 1277.119995 -631.482788
-717.932922 1276.609985 -630.488770
-692.017944 1285.719971 -633.387756
-725.788940 1285.239990 -628.917786
-736.663940 1288.489990 -627.159790
-696.932922 1227.189941 -628.571777
-680.590942 1241.359985 -633.409790
-704.090942 1229.160034 -627.968811
-732.585938 1238.089966 -625.771790
-748.411926 1245.489990 -625.003784
-685.369934 1250.540039 -634.019775
-719.497925 1248.790039 -629.297791
-764.210938 1247.880005 -623.238770
-688.340942 1343.309937 -619.295776
-742.142944 1328.589966 -617.336792
-687.690918 1345.880005 -618.390808
-719.466919 1338.469971 -616.734802
-702.104919 1349.439941 -614.522766
-731.223938 1347.020020 -611.399780
-764.954956 1343.760010 -608.004761
-735.252930 1351.260010 -608.684753
-685.815918 1299.410034 -632.406799
-686.512939 1302.489990 -631.730774
-684.479919 1298.140015 -632.826782
-732.434937 1309.250000 -624.242798
-710.016968 1307.640015 -627.579773
-716.400940 1317.920044 -624.317810
-741.538940 1315.559937 -621.511780
-724.053955 1322.260010 -622.017761
-712.329956 1324.449951 -623.013794
-696.053955 1387.179932 -591.399780
-693.720947 1392.469971 -586.996765
-687.871948 1401.910034 -579.424805
-736.457947 1392.579956 -579.194763
-682.197937 1403.829956 -578.519775
-678.715942 1408.189941 -574.424805
-740.370972 1403.290039 -567.617798
-741.403931 1404.400024 -566.183777
-696.937927 1366.250000 -605.922791
-748.858948 1356.869995 -603.614807
-728.350952 1364.069946 -602.353760
-732.823914 1369.799927 -598.094788
-707.157959 1379.199951 -595.687805
-707.944946 1375.109985 -598.654785
-762.033936 1372.189941 -591.832764
-701.069946 1432.130005 -535.067810
-736.689941 1427.719971 -533.288757
-703.582947 1434.209961 -530.123779
-718.502930 1433.939941 -526.198792
-753.460938 1427.250000 -529.224792
-747.704956 1429.189941 -527.043762
-729.106934 1436.630005 -516.938782
-721.947937 1438.030029 -515.957764
-751.896912 1434.670044 -513.590759
-696.262939 1413.640015 -564.335754
-683.953918 1422.439941 -555.367798
-706.395935 1419.049927 -554.909790
-728.622925 1419.069946 -549.958801
-757.308960 1416.809937 -546.536804
-734.207947 1421.799927 -544.299805
-746.236938 1424.479980 -536.898804
-690.574951 1454.160034 -465.994751
-697.377930 1452.849976 -470.298737
-729.306946 1449.099976 -464.733765
-704.632935 1452.819946 -460.127747
-684.244934 1455.959961 -450.700745
-705.872925 1453.079956 -449.328766
-720.671936 1451.099976 -445.138763
-695.627930 1454.429932 -441.681763
-741.598938 1439.319946 -504.782745
-714.558960 1445.270020 -496.975739
-720.488953 1446.489990 -489.738739
-749.979919 1440.140015 -497.788757
-708.729919 1448.479980 -488.303741
-719.960938 1446.979980 -488.232758
-756.830933 1442.890015 -483.372742
-732.216919 1446.599976 -481.311737
-728.999939 1445.510010 -408.272766
-690.720947 1449.459961 -403.555756
-745.325928 1440.449951 -398.439758
-742.747925 1439.010010 -392.152740
-718.694946 1440.819946 -387.489746
-753.882935 1432.319946 -378.525757
-705.812927 1451.750000 -427.557739
-678.932922 1455.569946 -430.039764
-754.106934 1444.859985 -422.915741
-707.939941 1451.319946 -425.974762
-681.386963 1453.900024 -418.340759
-754.746948 1442.319946 -409.572754
-727.403931 1446.599976 -412.639740
-689.626953 1414.790039 -333.177765
-689.908936 1419.619995 -339.620758
-722.418945 1408.119995 -331.582764
-718.641968 1411.809937 -335.623749
-724.252930 1404.699951 -328.176758
-743.682922 1397.569946 -324.203766
-683.401917 1438.939941 -370.781738
-689.434937 1434.349976 -363.389740
-690.293945 1433.069946 -361.083740
-688.079956 1431.109985 -356.521759
-758.530945 1428.500000 -372.243744
-708.673950 1424.599976 -351.211761
-685.716919 1428.780029 -352.140747
-706.741943 1422.689941 -347.652740
-713.272949 1371.179932 -297.101746
-729.129944 1371.559937 -299.816742
-689.999939 1361.229980 -287.323761
-721.809937 1356.760010 -289.536743
-729.988953 1359.709961 -292.636749
-722.009949 1363.469971 -293.708740
-682.038940 1356.660034 -283.520752
-755.323914 1343.280029 -287.759766
-757.447937 1347.729980 -290.288757
-708.184937 1391.709961 -312.367737
-688.934937 1400.650024 -317.030762
-693.501953 1394.679932 -312.425751
-737.497925 1386.339966 -312.752747
-736.693970 1384.410034 -310.854767
-760.166931 1380.660034 -311.677765
-700.214966 1381.229980 -302.123749
-743.017944 1378.839966 -307.452759
-787.981934 1300.410034 -276.509766
-773.871948 1287.979980 -274.585754
-779.942932 1328.900024 -284.103760
-785.940918 1312.969971 -279.034760
-771.333923 1244.459961 -275.426758
-796.319946 1233.439941 -277.489746
-777.303955 1217.170044 -281.584747
-772.017944 1273.540039 -273.772766
-794.973938 1264.119995 -273.780762
-794.808960 1175.410034 -301.239746
-777.530945 1168.479980 -305.631744
-797.219971 1163.829956 -309.149750
-788.371948 1210.670044 -283.911743
-791.559937 1199.520020 -288.245758
-775.564941 1194.329956 -290.570740
-775.851929 1133.650024 -338.372742
-783.785950 1124.410034 -350.615753
-775.127930 1152.510010 -318.683746
-793.960938 1151.829956 -319.312744
-783.307922 1140.540039 -330.336761
-777.511963 1102.489990 -396.574738
-799.952942 1102.929932 -395.028748
-776.713928 1116.420044 -363.745758
-793.939941 1113.660034 -369.299744
-788.346924 1107.410034 -382.539764
-789.642944 1094.859985 -459.636749
-795.746948 1095.579956 -467.304749
-781.458923 1098.459961 -486.308746
-792.442932 1096.179932 -423.569763
-793.173950 1095.020020 -436.200745
-781.177917 1094.449951 -444.093750
-786.764954 1094.459961 -451.198761
-773.799927 1109.160034 -519.114746
-795.387939 1117.369995 -535.533752
-794.067932 1124.069946 -546.346802
-800.327942 1101.750000 -498.201752
-771.111938 1108.219971 -516.944763
-790.142944 1145.179932 -572.077759
-775.419922 1158.660034 -584.345764
-786.162964 1129.239990 -553.208801
-793.106934 1132.160034 -557.062805
-800.434937 1198.280029 -608.728760
-800.349915 1172.770020 -594.561768
-796.106934 1260.949951 -623.667786
-789.759949 1230.089966 -619.319763
-783.245972 1239.479980 -621.060791
-773.433960 1256.219971 -623.317810
-792.912964 1258.949951 -623.567810
-786.334961 1324.559937 -615.024780
-795.057922 1346.569946 -605.956787
-790.262939 1298.239990 -621.325806
-776.335938 1316.119995 -617.507812
-783.679932 1322.290039 -615.741760
-801.010925 1387.089966 -578.296753
-801.929932 1396.400024 -569.459778
-772.382935 1357.150024 -600.245789
-771.332947 1372.589966 -590.317810
-787.856934 1377.030029 -586.950806
-789.294922 1424.309937 -530.399780
-780.694946 1428.530029 -521.916809
-772.075928 1411.500000 -551.019775
-791.377930 1407.979980 -555.695801
-781.724915 1443.910034 -463.054749
-801.481934 1443.569946 -466.837738
-801.548950 1444.630005 -445.258759
-799.874939 1435.380005 -505.186737
-801.049927 1437.630005 -497.228760
-792.903931 1442.219971 -477.842743
-792.147949 1439.199951 -405.672760
-789.004944 1443.459961 -429.548737
-793.354919 1442.609985 -421.565765
-778.787964 1407.329956 -340.875763
-800.314941 1413.689941 -349.269745
-779.470947 1398.290039 -330.045746
-793.369934 1427.189941 -372.822754
-788.736938 1368.540039 -304.232758
-796.943970 1356.250000 -296.643738
-774.303955 1349.599976 -292.981750
-801.377930 1348.510010 -292.439758
-778.854919 1392.170044 -323.764740
-790.914917 1380.089966 -312.790741
-794.656921 1375.299927 -309.168762
-805.006958 1340.020020 -282.012756
-804.739929 1215.829956 -279.319763
-804.997925 1274.609985 -267.919739
-805.028931 1156.089966 -307.176758
-804.814941 1196.229980 -285.756744
-805.192932 1123.750000 -337.659760
-805.078918 1150.270020 -311.419739
-804.971924 1136.589966 -326.455750
-805.502930 1086.770020 -406.932739
-805.304932 1084.679932 -450.569763
-805.063965 1093.770020 -494.612762
-805.421936 1091.020020 -501.674744
-805.340942 1161.630005 -599.453796
-804.830933 1169.959961 -597.181763
-805.449951 1183.479980 -614.461792
-804.897949 1235.390015 -624.942810
-804.804932 1326.939941 -617.714783
-805.098938 1388.439941 -586.711792
-804.958923 1404.799927 -568.180786
-804.770935 1429.420044 -526.742798
-805.407959 1437.160034 -529.443787
-805.307922 1441.160034 -517.600769
-804.908936 1448.429932 -465.513763
-805.157959 1452.489990 -455.892761
-805.266968 1453.929932 -451.817749
-804.942932 1444.689941 -406.197754
-805.065918 1440.069946 -385.549744
-805.424927 1443.880005 -382.652740
-805.501953 1452.910034 -409.893738
-805.113953 1411.799927 -334.646759
-805.439941 1408.929932 -324.640747
-805.445923 1427.750000 -349.616760
-804.891968 1391.359985 -316.963745
-805.337952 1393.179932 -310.911743
-805.369934 1378.339966 -298.174744
-818.809937 1300.329956 -261.178772
-815.001953 1289.479980 -259.636749
-814.465942 1284.500000 -259.181763
-815.470947 1244.469971 -260.147766
-818.577942 1232.089966 -262.427765
-809.345947 1267.020020 -258.833771
-812.969971 1249.329956 -259.685760
-808.575928 1153.439941 -298.259766
-814.937927 1200.660034 -271.696747
-815.996948 1117.589966 -334.702759
-812.194946 1109.250000 -346.527740
-818.136963 1106.079956 -351.516754
-810.460938 1103.270020 -356.583740
-818.412964 1079.619995 -439.342743
-813.026917 1098.920044 -532.170776
-814.470947 1108.380005 -549.546753
-808.364929 1142.859985 -590.168762
-818.718933 1135.849976 -583.944763
-813.903931 1113.910034 -557.809753
-813.457947 1130.250000 -578.081787
-810.806946 1182.089966 -617.499756
-810.854919 1225.420044 -633.674805
-808.395935 1256.540039 -638.360779
-819.065918 1245.679932 -637.486755
-818.601929 1347.209961 -622.382812
-811.122925 1391.979980 -594.098755
-818.015930 1372.390015 -608.493774
-815.304932 1437.510010 -537.583801
-810.358948 1443.540039 -525.318787
-814.480957 1447.799927 -514.838745
-814.642944 1456.150024 -485.103760
-810.585938 1457.699951 -476.509766
-811.536926 1451.839966 -395.438751
-814.610962 1450.929932 -392.111755
-812.859924 1419.179932 -331.694763
-818.762939 1432.959961 -351.407745
-811.900940 1358.849976 -280.841766
-812.320923 1396.410034 -307.375763
-804.125916 1304.199951 -275.954742
-803.801941 1338.540039 -286.806763
-803.584961 1269.280029 -273.019745
-803.520935 1154.160034 -316.229767
-803.953918 1146.549927 -322.656738
-803.919922 1116.559937 -536.246765
-803.798950 1229.359985 -620.147766
-806.167969 1169.859985 -288.547760
-806.601929 1084.880005 -490.501740
-806.742920 1357.790039 -281.142761
-803.169922 1317.589966 -279.890747
-803.017944 1153.260010 -579.940796
-802.397949 1140.140015 -566.866760
-802.220947 1444.429932 -439.025757
-805.777954 1172.219971 -287.916748
-805.583923 1095.650024 -377.947754
-806.061951 1356.640015 -616.117798
-806.068970 1458.049927 -439.529755
-804.583923 1254.030029 -272.168762
-804.212952 1382.719971 -584.161804
-807.653931 1123.689941 -327.145752
-807.616943 1144.449951 -306.142761
-807.567932 1201.059937 -625.541809
-807.043945 1421.890015 -561.287781
-807.189941 1430.170044 -549.532776
-807.485962 1456.739990 -479.941742
-649.799927 1090.609985 -335.265747
-649.710938 1478.160034 -485.211761
-649.611938 1321.099976 -246.690765
-649.611938 1163.119995 -268.642761
-649.611938 1203.579956 -251.965775
-649.611938 1064.609985 -404.188751
-649.611938 1064.589966 -467.838745
-649.611938 1062.929932 -426.873749
-649.611938 1088.839966 -556.199768
-649.611938 1279.809937 -655.783752
-649.611938 1263.939941 -657.680786
-649.611938 1292.099976 -654.313782
-649.611938 1228.260010 -650.610779
-649.611938 1366.760010 -632.723755
-649.611938 1371.679932 -630.691772
-649.611938 1468.880005 -394.722748
-649.611938 1441.160034 -329.712738
-649.611938 1377.329956 -268.519745
-651.184937 1281.140015 -247.485764
-651.647949 1345.709961 -263.645752
-649.662964 1341.910034 -256.703766
-649.655945 1155.520020 -277.961761
-650.953918 1174.199951 -270.492737
-651.239929 1109.380005 -327.043762
-650.661926 1134.209961 -297.916748
-651.403931 1074.589966 -400.483765
-650.811951 1070.359985 -412.769745
-649.728943 1088.589966 -352.154755
-649.994934 1086.540039 -539.638794
-649.843933 1077.760010 -520.880737
-651.228943 1138.790039 -601.728760
-650.080933 1344.199951 -638.700806
-650.739929 1317.189941 -645.723755
-651.650940 1389.150024 -609.338806
-650.343933 1471.510010 -474.203766
-650.671936 1468.589966 -487.452759
-650.246948 1468.099976 -402.219757
-649.806946 1460.189941 -373.374756
-650.762939 1381.369995 -279.931763
-660.960938 1159.829956 -290.842743
-655.954956 1184.589966 -272.738739
-656.653931 1124.530029 -318.435760
-659.656921 1082.880005 -400.149750
-660.794922 1082.939941 -494.805756
-658.827942 1221.420044 -636.229797
-656.892944 1185.179932 -624.303772
-658.811951 1245.829956 -640.900757
-657.090942 1312.299927 -638.574768
-659.532959 1324.020020 -633.954773
-657.603943 1371.390015 -614.019775
-659.486938 1442.479980 -534.289795
-660.120972 1445.010010 -528.270752
-657.759949 1454.270020 -508.646759
-657.542969 1457.020020 -499.424744
-660.556946 1459.640015 -478.896759
-657.282959 1450.520020 -377.350739
-659.103943 1356.069946 -275.804749
-656.322937 1408.290039 -311.323761
-657.417969 1397.209961 -302.213745
-657.194946 1388.559937 -294.744751
-677.405945 1239.000000 -263.990753
-674.225952 1229.290039 -265.110748
-672.621948 1261.429932 -260.505768
-673.705933 1165.410034 -292.087738
-675.466919 1181.859985 -282.629761
-672.221924 1090.729980 -389.071747
-673.855957 1089.160034 -395.884766
-676.259949 1098.229980 -372.288757
-671.653931 1081.250000 -458.944763
-674.640930 1081.599976 -447.422760
-677.007935 1104.089966 -536.579773
-671.801941 1086.929932 -495.334747
-675.481934 1139.429932 -583.965759
-672.389954 1122.929932 -566.957764
-672.427917 1217.449951 -629.793762
-677.447937 1176.679932 -611.355774
-672.061951 1344.280029 -621.745789
-673.241943 1311.750000 -632.160767
-676.162964 1399.900024 -583.547791
-673.234924 1428.699951 -348.171753
-768.856934 1188.910034 -604.286804
-769.766968 1296.630005 -621.680786
-769.725952 1424.559937 -530.022766
-768.450928 1434.520020 -507.937744
784.325073 -1903.890015 -81.314957
784.952087 -1882.070068 -61.751961
782.879028 -1891.719971 -67.476860
787.807068 -1871.920044 -57.466965
788.619080 -1845.550049 -36.331963
786.085083 -1840.329956 -28.429861
776.685059 -1963.979980 -147.379761
710.169067 -2030.619995 -175.397766
673.644043 -2054.870117 -178.425766
473.925049 -2107.600098 -115.190758
457.693054 -2133.910156 -152.518768
812.498047 -1740.969971 -25.977961
648.961060 -2081.670166 -176.458771
594.987061 -2106.060059 -162.756760
614.198059 -2013.030029 -71.324959
680.544067 -1938.430054 -25.616961
604.384033 -2014.250000 -44.634964
805.124084 -1724.140015 -18.340921
811.966064 -1816.800049 -83.942856
807.070068 -1857.010010 -106.965958
795.852051 -1898.780029 -128.117767
793.562073 -1928.180054 -140.213760
766.049072 -1982.050049 -161.727768
725.909058 -2016.040039 -177.046768
670.598083 -2070.310059 -184.777771
509.668060 -2147.540039 -167.995773
452.046051 -2162.240234 -145.126770
456.591064 -2148.160156 -130.665756
797.529053 -1740.959961 0.502039
799.940063 -1731.150024 0.913039
626.676086 -1996.160034 -38.763962
770.481079 -1826.250000 -3.832921
701.153076 -1920.560059 -19.712961
813.441040 -1822.700073 -85.598961
791.234070 -1938.050049 -144.332764
691.924072 -2054.800049 -182.605774
472.206055 -2132.850098 -102.499962
483.001068 -2109.370117 -76.673958
713.077087 -1908.270020 -18.695961
736.688049 -1879.950073 -13.275921
666.893066 -1954.000000 -33.374962
625.800049 -1988.050049 -43.353958
587.888062 -2020.780029 -51.291862
537.725037 -2070.910156 -59.702965
571.655029 -2028.219971 -55.423958
549.433044 -2037.780029 -60.015862
484.350067 -2089.430176 -84.111961
470.678070 -2118.989990 -113.673759
480.115051 -2111.969971 -90.926956
463.614044 -2149.220215 -127.489761
463.104065 -2124.660156 -134.463760
461.174072 -2127.290039 -139.579773
451.399048 -2168.430176 -163.866760
455.147064 -2168.890137 -165.091766
535.319031 -2121.090088 -162.662766
519.690063 -2144.370117 -164.087769
508.510071 -2134.810059 -163.501770
510.256073 -2140.850098 -163.850769
502.158051 -2150.450195 -164.425766
609.784058 -2093.560059 -161.393768
566.560059 -2118.820068 -162.633774
559.294067 -2095.979980 -161.144760
585.763062 -2092.850098 -160.979767
652.164062 -2073.400146 -176.010773
640.081055 -2071.540039 -170.707764
634.258057 -2073.040039 -168.444763
723.390076 -2025.040039 -174.063766
450.629059 -2174.120117 -164.782761
453.525055 -2142.780029 -163.183762
789.703064 -1811.200073 -14.432961
781.358032 -1821.050049 -8.594950
808.984070 -1735.930054 -13.578961
797.638062 -1773.479980 -7.386941
810.029053 -1745.969971 -21.659962
788.812073 -1840.000000 -34.827961
804.612061 -1870.200073 -102.162956
783.124084 -1846.320068 -42.057961
781.841064 -1830.459961 -32.818962
785.885071 -1888.270020 -78.000961
780.555054 -1855.440063 -50.752861
801.403076 -1870.170044 -101.406960
791.497070 -1898.859985 -113.960762
802.691040 -1833.869995 -80.490959
796.697083 -1841.930054 -84.068962
802.519043 -1787.280029 -51.014961
806.733032 -1746.989990 -21.384960
799.700073 -1780.140015 -45.507957
803.179077 -1741.440063 -8.477945
788.755066 -1808.770020 -17.097942
778.255066 -1837.829956 -42.241959
777.047058 -1826.739990 -37.939960
777.878052 -1868.119995 -68.228958
776.411072 -1848.229980 -53.056961
790.864075 -1871.800049 -99.152962
778.474060 -1867.140015 -88.910957
796.109070 -1816.160034 -67.470963
796.495056 -1828.989990 -75.797958
787.477051 -1830.420044 -71.599960
796.086060 -1806.989990 -61.471962
796.738037 -1758.339966 -26.882961
793.258057 -1755.599976 -19.616962
779.221069 -1799.170044 -33.282959
775.435059 -1868.630005 -75.536957
774.346069 -1848.530029 -60.077965
779.248047 -1841.920044 -71.719963
779.518066 -1816.070068 -53.976860
778.873047 -1804.339966 -40.380959
774.269043 -1869.390015 -81.036957
533.610046 -2088.020020 -151.460770
542.013062 -2093.780029 -154.512772
547.060059 -2100.130127 -157.040771
533.317078 -2105.219971 -155.583771
472.232056 -2118.930176 -153.204773
487.182068 -2090.209961 -117.345757
474.267059 -2114.300049 -146.542770
492.665070 -2081.070068 -92.698959
493.763062 -2122.140137 -160.497772
476.388062 -2130.660156 -162.399765
497.081055 -2129.910156 -163.185760
490.772064 -2156.120117 -164.661774
468.384064 -2157.160156 -164.511765
483.050049 -2160.910156 -164.915771
479.411072 -2125.950195 -156.847763
494.317047 -2097.390137 -139.929764
495.367065 -2084.000000 -115.806763
486.212067 -2096.630127 -129.815765
510.985046 -2069.850098 -82.955963
525.915039 -2053.219971 -64.054863
528.272034 -2065.180176 -62.385963
513.519043 -2074.820068 -64.490959
517.135071 -2085.840088 -137.657761
500.588074 -2091.330078 -134.461761
502.305054 -2080.890137 -117.280762
490.500061 -2082.440186 -87.802956
-607.590942 -2015.150024 -70.626961
-785.226929 -1917.510010 -99.683960
-781.705933 -1867.380005 -42.611961
-783.109924 -1899.280029 -75.182961
-787.110962 -1892.000000 -75.313957
-788.601929 -1828.410034 -24.525961
-788.934937 -1819.010010 -18.416912
-784.280945 -1834.229980 -21.650961
-809.460938 -1853.359985 -99.444962
-812.944946 -1819.660034 -79.497963
-799.384949 -1900.250000 -118.000763
-786.215942 -1938.329956 -127.096756
-787.789917 -1945.270020 -142.057770
-510.042938 -2115.820068 -161.941772
-466.018951 -2123.180176 -138.843765
-485.075928 -2087.800049 -92.558960
-815.080933 -1767.239990 -48.603958
-810.039917 -1855.310059 -103.398956
-805.723938 -1883.510010 -118.046761
-721.496948 -1889.479980 -15.252911
-743.463928 -1859.709961 -10.506941
-768.492920 -1820.380005 -5.721961
-662.682922 -1955.239990 -30.838861
-583.338928 -2028.739990 -50.366959
-804.059937 -1719.219971 -12.088911
-810.663940 -1752.950073 -40.883961
-807.897949 -1727.280029 -19.678961
-809.931946 -1805.320068 -78.248962
-796.356934 -1911.290039 -132.678757
-792.991943 -1923.280029 -138.329773
-782.080933 -1943.979980 -149.889771
-787.616943 -1940.930054 -147.160767
-780.553955 -1956.050049 -153.920761
-731.176941 -2012.510010 -175.079773
-694.824951 -2048.780029 -184.177765
-620.569946 -2090.590088 -168.858765
-581.129944 -2106.570068 -166.694763
-599.595947 -2099.229980 -165.706772
-504.300934 -2145.660156 -168.873764
-446.462952 -2164.010254 -156.809769
-456.075928 -2146.680176 -130.514771
-800.600952 -1721.530029 -2.634931
-795.193970 -1755.290039 0.291039
-551.219971 -2060.120117 -56.214958
-812.867920 -1748.270020 -35.629959
-806.614929 -1877.650024 -116.733757
-790.257935 -1942.390015 -145.504761
-488.044952 -2099.280029 -67.022964
-488.078949 -2092.690186 -98.304863
-682.090942 -1941.700073 -26.884962
-625.600952 -1991.290039 -42.308960
-584.719971 -2022.150024 -52.221962
-544.938965 -2042.670044 -60.409958
-538.433960 -2046.060059 -61.850960
-559.151917 -2055.600098 -55.265862
-501.946930 -2066.489990 -67.676964
-487.232941 -2078.910156 -78.351860
-480.514954 -2102.479980 -91.190956
-470.787933 -2118.580078 -113.087761
-478.443939 -2116.830078 -93.938957
-461.367950 -2133.260254 -137.393768
-465.472931 -2123.140137 -127.412758
-464.354950 -2140.450195 -127.210762
-458.675934 -2155.370117 -139.751770
-451.371948 -2169.620117 -162.896774
-463.764954 -2145.220215 -163.741760
-521.012939 -2126.950195 -163.019760
-503.772949 -2130.280029 -163.245773
-517.895935 -2139.320068 -163.761765
-524.864929 -2136.790039 -163.623764
-560.794922 -2114.590088 -162.328766
-580.650940 -2089.270020 -160.745773
-606.007935 -2086.979980 -160.792770
-593.974915 -2104.489990 -161.986771
-624.835938 -2086.959961 -165.778763
-623.486938 -2088.300049 -165.335770
-647.260925 -2079.739990 -174.770767
-677.960938 -2056.280029 -179.819763
-698.271912 -2044.329956 -179.202774
-739.277954 -2008.609985 -167.666763
-597.296936 -2104.050049 -162.159760
-553.417969 -2097.500000 -161.185760
-654.391968 -2063.830078 -175.970764
-795.719971 -1767.050049 -1.036971
-785.559937 -1815.030029 -10.141947
-611.475952 -2070.150146 -156.364761
-605.153931 -2064.640137 -143.180771
-594.844971 -2013.880005 -62.695961
-600.145935 -2014.940063 -66.315964
-810.738953 -1747.260010 -24.839962
-788.726929 -1912.670044 -102.924858
-783.773926 -1941.810059 -125.818756
-782.530945 -1862.640015 -56.055962
-783.814941 -1916.400024 -114.828758
-802.767944 -1850.959961 -90.792961
-804.444946 -1819.719971 -72.403862
-804.412964 -1800.180054 -60.088860
