ply
format ascii 1.0
element vertex 1388
property float x
property float y
property float z
end_header
720.459900 937.953186 -278.811401
874.069885 936.973206 -282.932434
835.909851 936.263184 -286.250427
839.879883 936.283203 -286.191406
914.929871 940.063171 -271.047424
911.749878 939.653198 -272.521423
913.019897 939.093201 -274.474426
930.469849 938.813171 -275.995422
934.589844 998.728149 -146.681412
924.349854 1004.148193 -139.146423
929.149902 994.448120 -152.826431
893.979858 994.678223 -152.350418
866.269897 996.848145 -149.133438
799.089844 1001.828125 -142.229416
724.259888 995.438232 -151.169418
735.279846 992.858154 -154.963425
704.519897 999.328125 -145.841415
654.539856 986.578125 -164.519424
662.179871 986.948120 -163.799423
833.299866 986.738159 -164.114426
828.449890 985.548218 -165.989426
717.649902 982.398193 -170.899429
737.289856 988.628174 -161.157425
911.679871 991.748169 -156.580429
831.539856 995.138184 -151.606430
810.229858 993.198120 -154.456436
790.349854 990.558228 -158.340439
782.189880 994.678223 -152.280411
790.969849 983.708130 -168.885422
860.259888 977.208130 -179.647415
848.819885 980.098145 -174.660416
819.019897 979.458130 -175.749435
923.049866 979.248169 -176.220413
932.559875 977.988159 -178.461411
870.709900 968.238159 -196.342422
927.329895 968.638184 -195.908432
732.599854 963.698181 -205.803421
723.179871 965.608154 -201.724411
709.689880 967.978149 -196.867416
693.249878 975.118164 -183.362411
661.939880 967.048157 -198.919418
660.499878 950.808167 -236.097427
654.499878 955.428162 -224.780411
765.219849 959.848206 -214.163437
815.729858 959.738159 -214.382431
732.829895 959.168152 -215.677414
833.219849 959.998169 -213.794418
864.889893 966.248169 -200.338425
801.829895 961.928162 -209.578415
684.869873 960.978149 -211.592422
759.349854 962.908203 -207.471420
778.319885 955.028198 -225.286423
785.739868 955.728149 -223.621414
789.149902 957.098206 -220.412430
819.239868 954.888184 -225.663437
654.909851 1171.448120 -16.592422
882.629883 1190.348145 -10.115425
936.899902 1178.818237 -14.050430
926.249878 1181.648193 -13.233421
867.519897 1181.478149 -12.919426
765.389893 1180.808228 -13.123421
743.829895 1177.568237 -14.304428
672.329895 1189.468140 -10.456421
695.599854 1192.528198 -9.609421
664.769897 1152.268188 -24.019424
748.989868 1162.348145 -19.941422
730.119873 1164.728149 -19.027420
892.969849 1166.368164 -18.401428
807.359863 1177.568237 -14.304428
771.399902 1170.828125 -16.762421
812.159851 1179.598145 -13.565422
841.299866 1173.828125 -15.669418
799.559875 1157.478149 -21.860428
829.869873 1159.668213 -21.007431
778.309875 1157.938232 -21.657425
848.539856 1147.148193 -26.215424
890.479858 1159.158203 -21.222427
887.919861 1155.848145 -22.457428
927.469849 1144.678223 -27.276428
879.239868 1137.378174 -30.735428
905.519897 1125.668213 -36.876419
914.629883 1129.598145 -34.984421
830.999878 1131.918213 -33.374420
784.609863 1129.568237 -34.567429
796.459900 1129.098145 -34.806427
690.239868 1123.868164 -37.795425
669.419861 1133.318237 -32.905426
899.139893 1112.838135 -43.815430
790.859863 1112.118164 -44.228424
878.659851 1113.398193 -43.482422
935.159851 1115.158203 -42.475418
740.799866 1119.688232 -39.983429
925.069885 1116.658203 -41.654419
832.249878 1119.428223 -40.126419
881.729858 1124.088135 -37.565430
746.759888 1098.628174 -52.336426
767.149902 1102.178223 -50.111420
941.949890 1114.478149 -42.859421
887.809875 1111.768188 -44.448425
855.299866 1097.598145 -53.002426
890.929871 1103.688232 -49.150421
920.499878 1106.828125 -47.342422
825.159851 1040.088135 -98.706421
739.979858 1031.958130 -106.961426
716.009888 1035.548218 -103.342422
670.659851 1013.718140 -127.322418
665.739868 1009.068237 -133.022430
723.149902 1021.438232 -118.264420
760.569885 1021.348145 -118.368423
808.849854 1022.828125 -116.696426
692.879883 1017.778198 -122.445419
857.519897 1025.818237 -113.428421
671.039856 1024.298218 -115.026428
739.989868 1028.948120 -110.127426
870.649902 1030.358154 -108.651428
806.549866 1031.478149 -107.469421
761.309875 1007.998169 -134.216431
733.259888 1013.318237 -127.661423
880.609863 1021.408203 -118.326431
914.689880 1022.958130 -116.551422
856.239868 1012.968140 -128.076431
872.739868 1018.118164 -122.143417
821.329895 1012.228149 -128.965424
925.799866 1073.518188 -70.240417
916.889893 1073.518188 -70.155426
862.239868 1082.858154 -62.982422
930.199890 1080.158203 -65.255417
922.269897 1077.598145 -67.287430
889.659851 1092.058228 -56.621429
874.879883 1077.988159 -66.628418
823.649902 1078.618164 -66.093430
725.919861 1077.178223 -67.214432
722.979858 1084.638184 -61.774429
690.149902 1087.138184 -60.300430
663.609863 1052.818237 -87.122421
836.759888 1064.828125 -76.820419
717.199890 1063.248169 -78.117432
789.429871 1065.178223 -76.523422
883.459900 1066.958130 -75.079422
832.349854 1067.448120 -74.703430
871.999878 1069.118164 -73.417419
717.089844 1070.308228 -72.503418
807.359863 1058.748169 -81.873428
757.319885 1056.318237 -83.893417
845.699890 1062.518188 -78.724426
906.599854 1062.538208 -78.751419
908.519897 1059.528198 -81.183426
926.039856 1055.028198 -85.111420
940.989868 1045.448120 -93.648422
887.609863 1301.568237 -733.838379
942.429871 1303.058228 -733.873413
781.879883 1298.248169 -734.016418
676.849854 1313.388184 -733.551392
747.089844 1305.498169 -733.804382
705.999878 1305.808228 -733.787415
730.839844 1295.888184 -733.972412
693.119873 1285.728149 -733.684387
665.479858 1329.278198 -732.501404
664.419861 1320.198120 -733.205383
684.249878 1316.238159 -733.442383
725.169861 1320.908203 -733.183411
804.889893 1318.248169 -733.331421
797.169861 1314.878174 -733.503418
704.559875 1312.298218 -733.586426
851.889893 1304.468140 -733.838379
893.269897 1308.028198 -733.724426
733.919861 1331.218140 -732.518433
765.899902 1337.418213 -731.895386
783.309875 1328.118164 -732.710388
801.709900 1330.528198 -732.527405
876.009888 1332.068237 -732.441406
849.969849 1341.898193 -731.361389
864.159851 1327.708130 -732.720398
919.899902 1320.028198 -733.215393
937.089844 1331.488159 -732.290405
892.899902 1241.848145 -729.585388
888.299866 1233.368164 -728.213379
804.639893 1229.978149 -727.715393
784.669861 1241.478149 -729.666382
808.899902 1243.548218 -729.934387
720.419861 1243.818237 -729.934387
716.999878 1235.298218 -728.590393
671.909851 1270.818237 -732.910400
673.329895 1275.218140 -733.249390
780.319885 1258.868164 -731.876404
745.799866 1267.618164 -732.722412
824.329895 1260.268188 -732.010437
775.979858 1251.288208 -730.938416
902.879883 1250.628174 -730.853394
700.749878 1257.308228 -731.717407
831.289856 1256.838135 -731.656433
759.319885 1275.448120 -733.320435
830.799866 1266.498169 -732.570435
857.229858 1263.388184 -732.292419
860.779846 1273.828125 -733.225403
656.269897 1187.678223 -717.019409
923.269897 1177.788208 -713.783386
897.549866 1171.668213 -711.678406
820.119873 1183.808228 -715.959412
720.589844 1191.098145 -718.141418
775.889893 1187.348145 -717.030396
720.289856 1180.248169 -714.708435
714.279846 1172.928223 -712.234436
683.739868 1185.268188 -716.095398
664.369873 1186.298218 -716.488403
685.719849 1178.718140 -713.923401
676.479858 1219.578125 -725.607422
717.469849 1203.648193 -721.733398
757.449890 1201.588135 -721.201416
807.479858 1201.278198 -721.122437
851.939880 1193.838135 -718.952393
833.999878 1200.458130 -720.915405
913.189880 1198.818237 -720.426392
752.669861 1195.368164 -719.408386
766.919861 1219.568237 -725.600403
726.079895 1214.318237 -724.425415
749.189880 1213.718140 -724.267395
858.349854 1210.668213 -723.457397
830.599854 1215.828125 -724.749390
931.199890 1205.918213 -722.295410
886.049866 1076.928223 -660.550415
937.769897 1078.608154 -661.849426
900.629883 1070.728149 -655.817383
815.159851 1079.708130 -662.780396
756.739868 1083.288208 -665.278381
711.069885 1079.218140 -662.219421
844.009888 1097.398193 -674.765381
720.479858 1095.868164 -673.771423
780.699890 1095.358154 -673.443420
817.899902 1098.528198 -675.486389
716.209900 1091.538208 -670.861389
720.709900 1094.698120 -673.005432
796.389893 1092.808228 -671.718384
715.019897 1092.458130 -671.494385
778.579895 1112.658203 -684.263428
731.709900 1114.098145 -685.074402
753.369873 1108.328125 -681.706421
779.539856 1104.098145 -679.039429
746.509888 1104.478149 -679.317383
832.499878 1113.458130 -684.707397
838.899902 1115.568237 -685.889404
842.719849 1118.888184 -687.778381
856.649902 1116.628174 -686.512390
924.129883 1097.478149 -674.792419
912.069885 1100.248169 -676.581421
941.919861 1113.408203 -684.430420
877.019897 1128.158203 -692.632385
941.359863 1128.348145 -692.775391
925.649902 1127.968140 -692.343384
921.739868 1132.178223 -694.329407
778.329895 1126.938232 -692.108398
782.609863 1132.888184 -695.088379
676.749878 1135.398193 -696.015381
671.929871 1131.228149 -693.882385
661.699890 1158.098145 -706.382385
684.439880 1158.848145 -706.835388
767.139893 1152.738159 -704.226379
695.129883 1153.338135 -704.486389
729.049866 1153.818237 -704.696411
720.979858 1155.078125 -705.249390
818.249878 1137.068237 -697.058411
831.739868 1139.038208 -697.989380
789.069885 1138.518188 -697.744385
830.639893 1142.478149 -699.620422
767.339844 1162.638184 -708.369385
734.359863 1165.648193 -709.522400
795.539856 1157.938232 -706.416382
802.979858 1161.228149 -707.796387
831.279846 1151.358154 -703.622437
811.219849 1163.518188 -708.718384
859.069885 1155.458130 -705.324402
935.659851 969.318176 -533.809387
789.409851 966.388184 -528.176392
785.879883 967.368164 -530.156433
749.659851 971.768188 -538.235413
693.149902 963.648193 -522.465393
680.969849 965.728149 -526.843384
673.459900 970.528198 -535.894409
661.149902 971.668152 -538.009399
806.599854 979.808228 -552.493408
792.619873 979.398193 -551.786438
759.349854 980.098145 -552.999390
867.539856 974.528198 -543.148438
764.299866 975.668213 -545.195435
810.489868 974.648193 -543.372437
662.079895 976.858154 -547.305420
748.349854 991.928223 -571.922424
763.939880 985.218140 -561.713379
841.539856 982.838135 -557.562439
920.789856 977.828125 -548.963379
843.079895 986.908203 -564.292419
830.899902 985.058228 -561.395386
931.039856 987.438232 -565.096436
908.819885 1036.238159 -625.005432
891.459900 1037.568237 -626.540405
936.149902 1037.068237 -626.030396
939.589844 1046.488159 -634.992432
893.899902 1028.688232 -617.573425
810.109863 1032.948120 -622.208435
676.109863 1046.458130 -635.088379
767.969849 1037.398193 -626.672424
693.099854 1041.098145 -629.957397
682.689880 1032.218140 -620.953430
677.559875 1030.378174 -619.351379
659.909851 1059.038208 -646.394409
673.119873 1057.738159 -645.230408
683.569885 1060.278198 -647.525391
737.999878 1052.918213 -641.006409
733.929871 1054.828125 -642.721436
832.049866 1050.138184 -638.491394
670.579895 1048.578125 -637.055420
796.609863 1046.088135 -634.741394
932.249878 1048.498169 -636.989380
889.239868 1046.248169 -634.891418
775.849854 1061.598145 -648.665405
809.939880 1054.728149 -642.625427
834.729858 1063.788208 -650.441406
855.729858 1066.358154 -652.522400
859.389893 1059.268188 -646.608398
837.369873 1061.598145 -648.657410
906.009888 1058.658203 -646.182434
929.379883 1057.158203 -644.650391
929.969849 1058.698120 -645.958435
939.919861 1053.728149 -641.662415
895.009888 997.588135 -579.997437
772.909851 1002.048218 -585.878418
729.079895 1002.108154 -585.957397
683.879883 994.208130 -575.256409
684.759888 992.218140 -572.363403
682.539856 1003.218140 -587.223389
684.089844 1004.408203 -588.754395
660.309875 1022.808228 -611.193420
674.539856 1018.138184 -605.882385
771.959900 1014.108154 -601.097412
772.909851 1013.018188 -599.721436
855.149902 1010.408203 -596.474426
891.089844 1010.318237 -596.345398
846.549866 1005.168213 -589.840393
888.499878 1004.078125 -588.454407
800.619873 1005.288208 -589.988403
793.949890 1008.128174 -593.599426
766.629883 1021.818237 -610.235413
774.699890 1019.898193 -608.083435
808.559875 1016.228149 -603.629395
862.429871 1012.348145 -598.873413
834.509888 1026.138184 -615.020386
854.169861 1019.038208 -607.079407
922.139893 1016.318237 -603.713379
915.659851 949.778198 -488.225403
916.849854 947.563171 -482.350403
916.719849 947.998169 -483.540405
906.919861 949.558167 -487.729431
792.469849 945.903198 -477.793396
749.289856 947.113159 -481.243408
706.579895 943.923157 -471.431396
668.549866 944.453186 -473.170410
657.639893 949.958191 -488.932434
665.129883 960.628174 -515.879395
672.769897 959.198181 -512.596436
673.249878 957.368164 -508.178406
683.289856 953.118164 -497.399414
804.149902 953.858154 -499.382385
801.469849 954.628174 -501.430420
756.929871 951.668152 -493.536438
885.679871 950.528198 -490.425415
829.899902 947.798157 -483.077393
741.219849 951.778198 -493.787415
772.279846 959.058167 -512.418396
745.089844 960.818176 -516.279419
752.109863 957.848206 -509.626404
802.269897 956.828186 -506.936401
845.169861 955.968201 -504.697388
796.749878 955.068176 -502.561401
854.739868 958.908203 -512.069397
874.769897 957.888184 -509.770386
823.839844 959.278198 -512.915405
846.289856 962.588196 -520.186401
839.139893 957.928162 -509.816406
872.419861 956.428162 -505.990417
937.789856 956.478149 -505.910400
937.739868 934.433167 -431.834412
899.059875 934.223206 -430.391418
807.589844 931.563171 -415.382385
753.339844 933.773193 -428.298401
682.689880 934.413208 -431.025391
703.319885 931.043152 -411.525391
714.259888 931.673157 -415.980408
656.329895 937.253174 -445.118408
810.119873 937.223206 -445.343384
797.699890 936.863159 -443.602417
823.389893 936.493164 -441.801392
773.939880 935.123169 -434.988403
806.409851 935.433167 -436.540405
856.159851 935.573181 -437.228394
694.739868 935.643188 -437.609436
758.959900 939.873169 -457.019409
872.889893 936.933167 -443.807434
843.319885 938.213196 -449.625427
853.849854 941.053162 -461.370422
933.199890 938.033203 -448.444397
913.339844 1599.708130 -577.859436
880.329895 1593.288208 -586.931396
816.199890 1592.848145 -587.522400
834.379883 1597.578125 -581.137390
773.579895 1599.578125 -578.173401
710.259888 1603.608154 -572.116394
701.639893 1592.418213 -588.040405
697.729858 1594.988159 -584.642395
673.469849 1599.908203 -577.573425
671.359863 1615.998169 -552.846436
680.489868 1615.138184 -554.455383
670.589844 1610.228149 -562.118408
789.519897 1607.418213 -566.391418
783.589844 1608.398193 -564.910400
723.679871 1613.438232 -557.274414
859.869873 1604.058228 -571.450439
783.509888 1601.048218 -575.976379
799.369873 1604.268188 -571.134399
864.809875 1600.958130 -576.096436
745.109863 1604.868164 -570.222412
745.249878 1616.208130 -552.761414
817.729858 1612.458130 -558.618408
837.909851 1613.178223 -557.441406
819.499878 1615.668213 -553.536438
910.329895 1610.598145 -561.521423
918.499878 1612.578125 -558.520386
937.849854 1617.358154 -550.649414
907.849854 1563.598145 -621.276428
934.989868 1561.518188 -623.712402
765.659851 1557.708130 -627.521423
795.249878 1559.978149 -625.272400
785.519897 1560.218140 -625.032410
671.549866 1569.798218 -614.639404
692.449890 1555.048218 -630.127380
685.779846 1556.198120 -628.996399
698.809875 1561.438232 -623.529419
734.199890 1560.648193 -624.510437
658.789856 1579.028198 -604.391418
671.069885 1572.328125 -611.898438
726.619873 1578.528198 -605.118408
811.489868 1575.618164 -608.288391
911.859863 1571.958130 -612.290405
887.359863 1570.598145 -613.774414
864.939880 1562.688232 -622.359436
758.559875 1565.858154 -618.913391
830.519897 1568.948120 -615.559387
753.969849 1566.528198 -618.190430
774.499878 1582.218140 -600.854431
745.299866 1581.698120 -601.480408
887.659851 1577.188232 -606.453430
882.399902 1580.428223 -602.972412
933.719849 1576.318237 -607.372437
940.479858 1583.198120 -599.624390
940.739868 1590.038208 -591.058411
931.609863 1630.058228 -526.724426
901.479858 1629.138184 -528.598389
886.209900 1625.378174 -536.369385
910.959900 1624.408203 -538.194397
810.129883 1625.188232 -536.729431
719.899902 1630.788208 -525.290405
688.309875 1621.768188 -543.051392
670.909851 1626.628174 -533.967407
664.859863 1632.628174 -521.170410
665.499878 1637.208130 -511.174438
706.829895 1638.438232 -508.523438
911.109863 1635.438232 -515.141418
747.909851 1637.168213 -511.337402
836.899902 1632.138184 -522.337402
808.499878 1632.278198 -522.041382
777.479858 1632.368164 -521.840393
772.229858 1634.238159 -517.773438
786.119873 1641.938232 -500.344421
810.819885 1639.658203 -505.610413
760.919861 1640.808228 -503.080383
773.309875 1639.158203 -506.856384
932.039856 1637.458130 -510.571411
935.089844 1651.928223 -470.920410
883.179871 1647.498169 -485.374390
796.799866 1646.768188 -487.489380
806.439880 1649.828125 -478.491394
844.019897 1650.188232 -477.358398
670.529846 1648.678223 -481.927429
689.929871 1650.838135 -474.621399
662.669861 1649.108154 -480.573425
736.849854 1650.448120 -476.356384
671.699890 1658.198120 -447.833435
747.879883 1655.308228 -459.228394
713.939880 1657.708130 -450.396423
860.469849 1655.668213 -457.886414
769.629883 1652.788208 -468.228394
868.219849 1652.098145 -470.652405
894.249878 1654.328125 -462.792419
725.249878 1654.348145 -462.714417
884.879883 1655.968140 -456.645386
914.439880 1655.278198 -459.283386
764.359863 1657.388184 -451.472412
836.849854 1659.308228 -443.593384
811.949890 1658.988159 -444.958435
870.339844 1657.928223 -449.259399
924.069885 1656.268188 -455.701416
940.799866 1655.748169 -457.390381
936.999878 1661.298218 -433.808411
660.769897 1662.798218 -425.205383
934.629883 1664.948120 -408.958435
801.179871 1662.148193 -429.400391
799.679871 1663.818237 -418.988403
657.089844 1665.558228 -404.896423
726.769897 1663.928223 -417.939392
665.789856 1666.248169 -397.760437
666.049866 1666.598145 -393.513428
769.869873 1666.058228 -400.207397
685.979858 1666.398193 -396.866394
756.609863 1666.478149 -396.098450
882.599854 1665.478149 -405.434387
730.329895 1665.078125 -408.800415
852.579895 1665.578125 -404.754395
780.169861 1664.588135 -412.772400
870.159851 1664.858154 -410.458435
831.419861 1666.538208 -395.029419
789.369873 1667.028198 -389.780396
840.279846 1666.228149 -398.337402
875.559875 1667.248169 -387.118408
839.839844 1667.458130 -382.907410
861.209900 1666.848145 -391.675415
916.079895 1667.268188 -386.950439
931.899902 1667.338135 -384.168396
931.609863 1469.438232 -691.797424
793.299866 1459.268188 -697.011414
728.889893 1474.018188 -689.215393
730.759888 1469.318237 -691.845398
697.399902 1468.478149 -692.224426
694.179871 1456.828125 -698.183411
657.919861 1469.978149 -691.541382
707.389893 1462.528198 -695.348389
800.749878 1485.478149 -682.751404
776.899902 1482.478149 -684.455383
749.409851 1484.018188 -683.587402
792.819885 1479.438232 -686.169434
717.989868 1476.728149 -687.689392
792.999878 1481.168213 -685.204407
838.459900 1479.398193 -686.194397
784.179871 1497.018188 -675.920410
767.239868 1492.138184 -678.879395
809.509888 1490.638184 -679.720398
837.179871 1496.768188 -676.065430
825.309875 1495.748169 -676.708435
911.329895 1515.858154 -663.013428
915.799866 1510.568237 -666.810425
905.349854 1504.038208 -671.322388
793.409851 1513.478149 -664.778381
823.749878 1515.608154 -663.242432
800.779846 1518.788208 -660.773438
662.499878 1525.088135 -655.801392
699.779846 1506.708130 -669.511414
795.269897 1529.668213 -652.157410
910.999878 1529.498169 -652.292419
705.719849 1537.168213 -646.181396
885.549866 1527.308228 -654.033386
867.519897 1521.468140 -658.645386
892.939880 1524.428223 -656.304382
876.049866 1524.638184 -656.139404
752.849854 1550.868164 -634.087402
757.379883 1539.498169 -644.221436
760.759888 1539.238159 -644.433411
851.259888 1550.708130 -634.233398
914.529846 1534.208130 -648.517395
939.909851 1538.948120 -644.550415
940.769897 1542.498169 -641.682434
890.279846 1408.678223 -716.982422
883.539856 1401.998169 -719.068420
895.749878 1397.628174 -720.333435
817.199890 1411.308228 -716.233398
769.339844 1412.808228 -715.746399
728.539856 1417.138184 -714.173401
755.869873 1416.198120 -714.517395
717.329895 1418.318237 -713.742432
680.719849 1421.668213 -712.428406
672.539856 1410.998169 -716.102417
664.699890 1453.278198 -699.831421
664.969849 1440.438232 -705.237427
773.419861 1436.088135 -707.128418
749.369873 1436.208130 -707.081421
825.299866 1432.938232 -708.321411
735.679871 1431.118164 -709.008423
696.869873 1428.028198 -710.175415
823.379883 1423.518188 -711.833435
736.359863 1425.278198 -711.186401
754.989868 1426.268188 -710.822388
741.389893 1449.448120 -701.554382
795.449890 1444.288208 -703.838379
825.929871 1439.298218 -705.806396
843.759888 1453.958130 -699.506409
852.339844 1442.858154 -704.440430
939.099854 1442.498169 -704.411438
943.279846 1448.928223 -701.795410
868.949890 1354.048218 -729.720398
890.239868 1349.638184 -730.290405
920.439880 1356.998169 -729.059387
771.539856 1355.248169 -729.556396
772.839844 1356.158203 -729.412415
786.769897 1359.298218 -728.825439
656.969849 1356.448120 -729.280396
720.539856 1359.028198 -728.820435
707.779846 1356.078125 -729.345398
665.329895 1392.828125 -721.600403
675.149902 1384.328125 -723.677429
695.069885 1379.328125 -724.820435
733.019897 1377.458130 -725.213379
695.609863 1375.548218 -725.619385
883.609863 1375.718140 -725.581421
776.779846 1364.478149 -727.815430
853.419861 1363.808228 -727.948425
765.569885 1371.788208 -726.393433
695.809875 1371.648193 -726.418396
836.089844 1360.658203 -728.560425
760.619873 1396.348145 -720.677429
736.869873 1389.308228 -722.566406
741.689880 1392.518188 -721.709412
795.269897 1388.098145 -722.821411
773.169861 1383.798218 -723.829407
824.409851 1388.888184 -722.633423
917.169861 1507.358154 -59.259430
892.459900 1518.768188 -67.201431
941.249878 1514.148193 -63.811432
855.809875 1515.908203 -65.013428
782.429871 1520.188232 -68.182419
794.999878 1519.848145 -67.915421
815.399902 1517.848145 -66.426422
793.349854 1517.088135 -65.870422
813.159851 1516.278198 -65.275421
761.849854 1508.788208 -60.172424
725.529846 1512.938232 -63.000427
731.209900 1515.378174 -64.707428
661.179871 1516.798218 -65.743423
698.959900 1527.778198 -74.033432
673.479858 1512.108154 -62.359421
670.239868 1482.598145 -43.371429
759.949890 1499.618164 -54.061432
709.119873 1491.078125 -48.443420
675.049866 1497.828125 -52.877426
857.229858 1513.198120 -63.126419
846.499878 1509.548218 -60.677429
806.389893 1510.608154 -61.396423
872.549866 1507.968140 -59.630417
765.419861 1483.398193 -43.850418
768.579895 1491.178223 -48.582428
892.969849 1496.288208 -51.936432
861.969849 1487.118164 -46.017426
827.419861 1482.528198 -43.337418
891.849854 1494.818237 -50.992432
876.119873 1489.148193 -47.238419
914.689880 1494.488159 -50.687424
935.169861 1490.138184 -48.135422
895.889893 1564.538208 -107.575424
942.589844 1554.228149 -97.187424
779.139893 1561.358154 -104.155426
758.739868 1558.658203 -101.462418
780.589844 1555.748169 -98.756424
657.489868 1562.148193 -104.989426
736.109863 1561.348145 -104.147430
703.369873 1563.628174 -106.620422
695.599854 1544.018188 -87.923431
902.089844 1546.048218 -89.759430
805.069885 1542.188232 -86.269424
751.869873 1547.628174 -91.217422
698.379883 1547.708130 -91.295425
884.619873 1548.598145 -92.108429
829.109863 1555.448120 -98.478424
754.049866 1531.968140 -77.447418
744.709900 1530.728149 -76.445419
835.039856 1540.118164 -84.486420
810.069885 1536.028198 -80.868423
850.749878 1527.648193 -73.985428
900.499878 1541.798218 -85.986420
938.899902 1538.438232 -83.155426
938.009888 1458.868164 -30.928421
916.349854 1467.138184 -35.013428
786.789856 1469.398193 -36.126419
724.519897 1460.348145 -31.721420
752.039856 1461.868164 -32.425430
668.569885 1454.708130 -29.168427
679.559875 1473.798218 -38.457428
671.229858 1468.878174 -35.931427
697.969849 1472.018188 -37.552429
788.939880 1444.528198 -24.482422
787.369873 1442.588135 -23.601425
866.469849 1449.568237 -26.768417
850.009888 1451.598145 -27.704422
861.439880 1461.748169 -32.369431
840.529846 1462.098145 -32.530426
856.169861 1456.848145 -30.111420
728.499878 1431.238159 -18.853424
864.339844 1442.418213 -23.621429
843.409851 1431.968140 -19.171417
845.839844 1424.088135 -16.186432
860.569885 1437.688232 -21.502426
942.239868 1435.148193 -20.422424
936.829895 1422.798218 -15.716431
895.519897 1409.698120 -11.439423
903.899902 1414.938232 -13.020424
938.809875 1409.898193 -11.373421
804.379883 1413.298218 -12.446426
760.329895 1404.298218 -9.838425
762.089844 1411.038208 -11.726425
733.809875 1410.918213 -11.741425
735.299866 1411.748169 -11.994423
698.209900 1412.698120 -12.281425
656.089844 1412.988159 -12.376427
722.599854 1418.308228 -14.140427
783.999878 1394.038208 -6.966423
750.719849 1387.248169 -5.091423
737.029846 1394.158203 -7.003426
793.449890 1391.588135 -6.289421
767.999878 1398.228149 -8.139427
880.109863 1401.918213 -9.173424
837.469849 1404.408203 -9.869423
750.739868 1401.928223 -9.175423
767.549866 1377.658203 -2.704422
757.579895 1377.698120 -2.720421
809.889893 1386.798218 -5.013428
744.739868 1381.788208 -3.668427
834.689880 1376.118164 -2.381424
848.139893 1380.768188 -3.432426
928.669861 1382.898193 -4.118423
656.569885 1317.818237 5.346573
751.029846 1316.748169 5.452576
733.859863 1316.268188 5.512573
822.299866 1324.248169 4.940575
887.249878 1333.388184 4.026573
707.389893 1324.788208 5.010574
824.939880 1315.848145 5.547577
853.409851 1324.898193 4.901573
834.009888 1320.918213 5.266579
934.579895 1316.098145 5.477577
902.509888 1347.538208 2.388573
906.079895 1354.518188 1.561577
878.849854 1364.568237 -0.061424
895.929871 1368.698120 -0.864426
894.799866 1349.058228 2.206573
685.299866 1335.858154 3.792572
808.799866 1337.578125 3.599579
868.709900 1334.568237 3.940575
827.259888 1335.748169 3.805573
846.279846 1342.928223 2.976578
826.939880 1341.318237 3.165573
794.319885 1344.038208 2.848572
782.799866 1348.438232 2.334572
785.419861 1339.378174 3.391579
797.449890 1365.728149 -0.273422
712.779846 1348.098145 2.373573
681.509888 1360.918213 0.586578
655.659851 1353.348145 1.792572
738.339844 1354.848145 1.548576
906.119873 1624.598145 -190.405411
893.939880 1629.118164 -199.297440
943.319885 1622.158203 -185.811417
889.459900 1633.518188 -208.120438
795.979858 1628.418213 -197.568436
809.569885 1627.688232 -196.119431
734.859863 1623.848145 -189.043411
683.469849 1622.458130 -186.588425
720.429871 1630.528198 -201.876419
693.359863 1630.808228 -202.868423
653.699890 1602.278198 -153.551437
671.459900 1609.358154 -164.298416
672.819885 1614.188232 -172.125412
832.179871 1619.178223 -180.566422
859.149902 1618.668213 -179.689438
734.689880 1619.178223 -180.566422
785.709900 1618.018188 -178.564438
927.689880 1619.358154 -180.890427
864.879883 1625.498169 -192.066422
783.119873 1622.418213 -186.465439
738.859863 1622.208130 -186.070419
756.669861 1607.698120 -161.672440
749.839844 1604.208130 -156.395432
897.409851 1617.658203 -177.988419
856.349854 1615.568237 -174.446426
854.319885 1605.448120 -158.230423
916.349854 1616.338135 -175.702438
930.669861 1608.188232 -162.493423
911.929871 1591.158203 -138.680420
894.369873 1598.318237 -148.127426
878.869873 1593.568237 -141.674423
832.949890 1598.878174 -148.708420
769.869873 1597.628174 -146.976425
744.019897 1593.248169 -141.283432
714.339844 1602.848145 -154.415421
708.859863 1603.688232 -155.669418
769.699890 1584.178223 -129.765427
825.529846 1583.238159 -128.604431
797.209900 1582.928223 -128.229431
683.059875 1586.668213 -132.843430
777.859863 1588.628174 -135.352417
808.579895 1594.098145 -142.363419
876.039856 1589.768188 -136.802429
796.789856 1577.098145 -121.228424
773.599854 1579.998169 -124.663422
827.389893 1573.188232 -116.733429
879.429871 1581.018188 -125.992432
926.339844 1579.708130 -124.415421
936.169861 1570.558228 -113.823425
938.419861 1650.358154 -251.481430
927.249878 1649.818237 -250.341415
920.249878 1650.428223 -252.466415
915.669861 1645.778198 -238.076431
842.539856 1649.388184 -248.266434
804.549866 1650.288208 -250.958420
769.049866 1649.598145 -248.870438
744.329895 1649.118164 -247.500412
757.959900 1647.748169 -243.640427
701.789856 1648.308228 -245.466415
700.499878 1649.048218 -247.716415
672.799866 1646.598145 -240.586411
664.819885 1646.268188 -239.736435
676.329895 1650.968140 -253.999435
656.039856 1645.378174 -236.992416
664.019897 1641.098145 -225.927414
710.219849 1640.308228 -223.714432
729.139893 1641.738159 -227.362411
815.809875 1643.148193 -230.923416
743.669861 1643.118164 -230.859421
757.189880 1644.548218 -234.589432
798.459900 1647.608154 -243.249435
823.189880 1648.708130 -246.351425
806.789856 1645.818237 -238.178421
791.139893 1640.408203 -224.072433
785.129883 1638.528198 -219.448410
825.469849 1636.938232 -215.691422
886.729858 1640.628174 -224.685410
881.109863 1664.268188 -312.296448
874.109863 1663.388184 -306.442444
938.439880 1662.218140 -300.244446
797.849854 1663.678223 -307.809448
753.169861 1662.518188 -301.099426
706.619873 1663.968140 -310.862427
701.519897 1664.638184 -315.616394
660.569885 1661.688232 -297.519409
684.949890 1663.438232 -308.537415
875.509888 1659.608154 -286.107422
748.189880 1659.408203 -285.216431
720.039856 1658.378174 -280.557434
714.299866 1657.808228 -277.979431
873.679871 1662.098145 -298.889404
868.679871 1662.188232 -299.377441
837.519897 1662.318237 -300.068420
730.509888 1660.498169 -290.350403
739.629883 1656.348145 -271.972412
881.489868 1658.698120 -282.243408
920.989868 1659.818237 -287.054443
847.669861 1657.218140 -275.752441
942.919861 1659.368164 -285.079407
918.919861 1667.598145 -359.144409
854.049866 1667.968140 -364.090454
782.919861 1667.918213 -361.171448
734.629883 1667.898193 -360.818420
697.879883 1667.728149 -360.806396
694.149902 1667.678223 -366.078430
659.539856 1665.118164 -318.565430
750.319885 1666.928223 -337.257446
918.679871 1667.398193 -345.319397
717.019897 1667.328125 -343.915405
835.019897 1667.518188 -348.153442
800.659851 1667.658203 -352.940430
838.199890 1667.658203 -352.897400
890.149902 1667.598145 -351.032410
759.879883 1665.558228 -321.857422
731.599854 1666.028198 -326.147400
809.479858 1666.408203 -330.511414
784.609863 1666.648193 -333.498413
819.149902 1666.158203 -327.416443
890.679871 1666.748169 -334.389404
915.429871 1233.538208 0.083572
905.619873 1250.058228 2.849579
895.049866 1248.028198 2.575577
667.909851 1224.898193 -1.543427
673.689880 1234.238159 0.210579
682.339844 1211.358154 -4.379425
865.399902 1222.128174 -2.098427
859.889893 1221.528198 -2.225426
764.059875 1215.878174 -3.394424
803.209900 1223.018188 -1.918427
808.109863 1222.988159 -1.922424
857.199890 1223.678223 -1.785423
793.789856 1224.068237 -1.710426
746.599854 1230.158203 -0.500427
728.909851 1206.498169 -5.503426
739.889893 1200.268188 -7.181427
800.359863 1210.398193 -4.640427
875.899902 1215.548218 -3.544426
727.459900 1211.648193 -4.273422
831.479858 1201.698120 -6.775421
819.219849 1203.848145 -6.194427
937.329895 1203.238159 -6.482422
938.489868 1195.388184 -8.594421
947.909851 1202.428223 -10.697426
944.139893 1516.818237 -65.797424
945.759888 1651.948120 -259.857422
943.759888 1667.838135 -362.916443
945.089844 1667.078125 -351.576416
949.799866 1541.578125 -631.877380
949.549866 1414.728149 -707.496399
947.689880 1254.488159 -727.942383
947.949890 1091.638184 -666.206421
943.929871 986.198120 -562.896423
946.999878 943.323181 -460.438416
945.419861 933.073181 -420.576416
944.239868 1029.408203 -109.868423
944.969849 1036.658203 -102.776428
948.519897 1254.788208 -1.817421
944.029846 1300.058228 5.907578
945.509888 1379.418213 -3.956421
945.509888 1436.288208 -21.778427
948.809875 1456.818237 -36.108429
946.989868 1487.158203 -48.921417
945.909851 1639.018188 -224.130417
946.279846 1636.438232 -218.944412
945.009888 1657.338135 -278.867432
944.259888 1599.608154 -577.912415
948.629883 1597.668213 -571.691406
947.209900 1520.218140 -656.366394
946.479858 1484.858154 -681.047424
948.709900 1419.888184 -707.667419
943.899902 1263.148193 -732.133423
948.179871 1263.428223 -727.984436
945.329895 954.988159 -500.497437
946.119873 950.838196 -487.566406
946.579895 931.223206 -334.672424
944.519897 942.483154 -262.522400
943.849854 957.148193 -220.784439
948.739868 963.568176 -219.453415
948.399902 986.898193 -172.914413
948.239868 1019.358154 -127.517426
950.359863 1227.298218 -10.411423
951.749878 1255.558228 -10.963425
955.419861 1271.928223 -26.980423
954.439880 1251.848145 -23.661423
957.509888 1267.488159 -48.067429
955.069885 1231.848145 -30.720428
953.289856 1400.078125 -29.116425
957.819885 1439.198120 -88.060425
956.579895 1509.558228 -114.752426
957.919861 1505.778198 -137.154419
952.459900 1558.748169 -125.735428
954.779846 1616.868164 -241.543411
955.059875 1619.208130 -252.952438
955.839844 1616.518188 -263.183411
957.479858 1604.688232 -278.683411
958.169861 1593.328125 -302.703430
957.379883 1616.458130 -385.946411
953.889893 1635.848145 -441.092407
954.169861 1631.598145 -452.038391
956.989868 1604.198120 -467.365417
957.579895 1588.618164 -487.597412
952.769897 1612.718140 -521.808411
954.279846 1588.248169 -549.302429
956.149902 1569.158203 -554.104431
957.919861 1528.888184 -567.270386
955.159851 1522.058228 -619.116394
951.609863 1467.888184 -677.141418
955.199890 1415.118164 -682.351379
957.539856 1383.668213 -669.044434
950.119873 1414.718140 -706.010437
953.419861 1369.348145 -705.941406
955.469849 1352.458130 -697.118408
955.829895 1340.808228 -695.582397
957.889893 1311.068237 -672.151428
951.039856 1378.178223 -713.046387
954.949890 1336.748169 -702.545410
958.239868 1284.018188 -663.684387
951.689880 1267.858154 -718.545410
956.209900 1207.988159 -682.198425
957.679871 1190.518188 -658.546387
952.819885 1169.418213 -691.426392
956.489868 1138.298218 -650.375427
957.599854 1145.218140 -639.984436
958.339844 1121.588135 -603.876404
952.559875 1151.908203 -685.176392
957.199890 1117.958130 -629.752380
958.169861 1119.658203 -607.262390
950.759888 1061.608154 -634.721436
953.919861 1051.378174 -607.527405
956.459900 1041.938232 -569.280396
951.399902 1013.958130 -580.062439
953.869873 998.928223 -539.426392
956.509888 1009.748169 -519.908386
950.929871 1001.928223 -566.288391
951.989868 994.858154 -548.723389
953.969849 956.868164 -423.658386
956.109863 967.718201 -395.374451
957.809875 987.928223 -376.090454
950.589844 938.183167 -373.283447
952.439880 944.963196 -356.537415
954.449890 955.918152 -334.302429
956.459900 971.488159 -331.277405
957.719849 990.178223 -310.277405
958.339844 1010.558228 -286.830444
956.699890 998.628174 -235.341415
957.679871 1022.218140 -214.918411
951.029846 999.848145 -165.065414
955.499878 1032.598145 -155.452438
955.019897 1043.728149 -137.921417
956.779846 1082.768188 -120.442429
954.549866 1095.528198 -87.407425
951.629883 1145.128174 -42.335419
953.269897 1147.528198 -47.801422
955.309875 1172.978149 -49.237427
955.849854 1192.428223 -47.001419
957.439880 1213.868164 -56.742432
958.159851 1225.218140 -71.094421
958.089844 1231.188232 -67.720428
958.409851 1297.378174 -69.814423
957.679871 1302.168213 -50.560425
955.679871 1300.788208 -28.257431
958.399902 1330.048218 -70.053421
958.179871 1334.828125 -64.921417
958.409851 1354.898193 -74.699417
953.389893 1318.998169 -15.180420
955.709900 1332.618164 -30.390427
955.789856 1351.638184 -33.601425
958.389893 1379.858154 -79.198425
958.419861 1370.778198 -80.414429
953.709900 1347.698120 -19.883423
957.869873 1395.418213 -71.018417
958.419861 1394.668213 -87.553421
958.419861 1402.818237 -90.247421
951.459900 1361.848145 -13.142426
955.649902 1393.448120 -41.856430
957.029846 1404.218140 -59.395432
957.929871 1410.278198 -77.750427
958.439880 1456.338135 -120.071426
956.979858 1451.088135 -79.538422
958.429871 1459.278198 -120.751419
953.499878 1439.428223 -45.214432
958.429871 1471.618164 -129.486420
952.599854 1453.968140 -47.638428
954.459900 1479.898193 -72.882431
956.499878 1480.748169 -91.859421
957.979858 1496.478149 -130.811432
958.439880 1500.278198 -156.210434
954.249878 1511.988159 -93.960419
955.709900 1515.168213 -108.481430
951.979858 1513.318237 -82.076431
954.319885 1533.678223 -113.028427
957.889893 1534.228149 -165.975418
952.389893 1535.068237 -102.028427
955.439880 1547.688232 -136.315430
957.109863 1559.768188 -176.790421
957.999878 1554.988159 -198.525436
951.049866 1571.218140 -132.550430
950.909851 1583.808228 -147.255417
951.559875 1593.028198 -164.048416
955.139893 1600.868164 -210.814438
956.979858 1590.918213 -227.256424
950.649902 1601.028198 -170.415421
952.979858 1605.098145 -193.369431
955.449890 1609.298218 -233.369431
957.089844 1604.968140 -266.762451
957.899902 1591.738159 -271.339417
958.059875 1600.208130 -329.015442
958.429871 1588.368164 -329.434448
953.589844 1637.918213 -287.998413
957.889893 1606.088135 -356.294434
949.759888 1646.228149 -264.602417
952.519897 1643.328125 -290.603455
952.689880 1646.308228 -311.496399
956.229858 1628.048218 -347.604431
957.489868 1615.878174 -364.417419
958.439880 1588.428223 -378.378418
950.689880 1656.048218 -332.984436
953.669861 1645.688232 -359.011414
957.449890 1615.138184 -395.282410
954.029846 1642.708130 -391.049438
956.889893 1617.698120 -417.298401
957.539856 1607.168213 -433.090393
958.369873 1583.698120 -444.636414
955.169861 1629.128174 -437.626404
955.889893 1621.698120 -445.707397
958.109863 1581.118164 -472.188416
958.439880 1572.568237 -459.335388
958.419861 1565.548218 -485.118408
952.539856 1640.018188 -451.103394
957.309875 1584.728149 -506.020386
957.669861 1583.678223 -493.437439
949.249878 1644.688232 -473.004395
954.099854 1613.548218 -504.431396
956.089844 1593.608154 -514.864380
957.709900 1572.968140 -512.686401
958.119873 1535.468140 -552.020386
957.539856 1565.348145 -533.941406
953.769897 1605.418213 -525.678406
950.469849 1634.878174 -491.407410
958.429871 1522.388184 -550.563416
958.409851 1504.248169 -573.717407
958.009888 1516.858154 -577.255432
958.279846 1503.488159 -581.061401
950.859863 1600.168213 -557.510437
954.239868 1557.168213 -591.101379
956.269897 1529.688232 -598.983398
958.369873 1490.848145 -589.744385
956.689880 1512.488159 -609.608398
955.859863 1524.228149 -609.692383
954.239868 1546.388184 -602.941406
958.409851 1436.128174 -623.553406
957.839844 1448.428223 -634.714417
955.529846 1477.278198 -649.667419
955.939880 1455.028198 -658.053406
957.729858 1423.958130 -649.953430
958.119873 1392.188232 -651.773438
955.549866 1434.578125 -672.307434
953.519897 1466.468140 -669.333435
950.549866 1444.628174 -692.931396
957.089844 1386.668213 -673.638428
955.779846 1383.848145 -687.687439
955.739868 1380.998169 -688.751404
957.659851 1341.778198 -674.775391
958.409851 1298.178223 -658.087402
953.479858 1318.118164 -712.328430
957.499878 1281.838135 -681.389404
958.059875 1257.018188 -665.549438
958.399902 1257.228149 -656.822388
958.439880 1251.438232 -650.358398
952.049866 1321.708130 -717.734436
955.749878 1270.088135 -697.826416
956.109863 1255.228149 -692.787415
957.839844 1226.658203 -665.313416
956.019897 1242.848145 -691.857422
950.929871 1292.538208 -722.536438
953.319885 1227.698120 -706.738403
957.799866 1186.598145 -653.832397
958.299866 1159.438232 -628.387390
958.409851 1168.088135 -627.707397
954.079895 1181.408203 -689.394409
956.619873 1168.588135 -664.010437
957.159851 1166.178223 -657.299438
957.979858 1162.148193 -638.431396
957.849854 1097.578125 -599.602417
958.079895 1078.518188 -574.259399
953.079895 1075.168213 -634.992432
950.609863 1088.158203 -656.238403
949.029846 1091.108154 -663.344421
949.989868 1055.568237 -632.337402
949.619873 1043.798218 -622.545410
955.049866 1029.348145 -572.264404
957.549866 1037.398193 -543.811401
958.379883 1024.958130 -479.937439
956.619873 1021.988159 -538.670410
958.399902 1021.698120 -470.191406
954.719849 983.988159 -499.421387
956.939880 990.348145 -464.352417
950.639893 972.718140 -517.325439
956.359863 981.848145 -455.589417
957.259888 983.468140 -425.082397
957.989868 995.138184 -407.786438
954.129883 965.528198 -456.843384
955.279846 967.928162 -440.024414
958.429871 1006.998169 -383.512451
954.139893 955.888184 -409.722412
954.499878 956.098206 -394.744446
955.839844 964.798157 -390.310425
950.869873 940.453186 -395.441406
954.149902 959.348206 -297.146423
954.269897 962.848206 -284.714417
956.399902 982.088135 -272.376404
956.699890 987.638184 -264.648438
957.599854 996.788208 -270.801453
958.389893 1024.588135 -249.536423
958.109863 1028.038208 -226.132431
956.159851 988.708130 -245.546432
955.659851 981.178223 -252.173416
954.969849 976.748169 -251.263412
951.999878 949.718201 -296.495422
958.419861 1047.548218 -210.623428
955.099854 989.788208 -220.698410
956.939880 1016.268188 -204.776413
952.679871 981.028198 -210.204422
957.189880 1028.748169 -188.951431
957.429871 1034.688232 -184.289413
955.609863 1018.788208 -176.174423
952.569885 992.598145 -187.493423
953.249878 1039.408203 -127.589432
955.169861 1077.168213 -106.434418
957.839844 1120.858154 -109.856430
958.349854 1138.618164 -113.195419
958.419861 1135.518188 -119.531418
957.609863 1128.118164 -98.734421
956.959900 1128.418213 -88.786423
956.419861 1106.868164 -96.760422
955.049866 1091.778198 -93.761429
950.829895 1051.788208 -102.548431
958.409851 1169.038208 -99.308426
958.419861 1185.478149 -93.132431
955.329895 1138.588135 -65.555420
958.099854 1193.148193 -79.385422
955.619873 1163.718140 -55.732422
957.079895 1183.828125 -62.768417
950.909851 1156.728149 -34.385422
955.069885 1199.878174 -38.518417
957.869873 1245.528198 -59.568420
957.729858 1256.338135 -54.654419
958.409851 1264.268188 -70.830429
958.359863 1279.038208 -67.609421
957.509888 1283.338135 -46.914429
956.749878 1297.938232 -38.452423
952.689880 1281.638184 -12.198425
950.459900 1285.278198 -4.027428
871.909851 1297.418213 5.881577
919.049866 1297.648193 5.932579
928.819885 1303.768188 5.915573
865.139893 1301.448120 5.966576
926.289856 1284.178223 5.451576
743.009888 1291.818237 5.775574
704.569885 1309.228149 5.790573
661.289856 1289.808228 5.656578
680.969849 1264.158203 4.409576
674.809875 1269.518188 4.739578
657.259888 1279.318237 5.268578
695.319885 1270.878174 4.886574
690.109863 1276.448120 5.138573
720.819885 1278.898193 5.250572
877.239868 1291.048218 5.744576
789.899902 1286.578125 5.565575
799.409851 1290.948120 5.741577
765.169861 1289.418213 5.679573
765.809875 1259.708130 3.986572
767.219849 1256.498169 3.647575
743.519897 1253.228149 3.253578
745.939880 1266.228149 4.586578
825.629883 1270.218140 4.768578
849.689880 1253.338135 3.248573
885.579895 1271.118164 4.818573
921.909851 1275.978149 5.101578
638.449890 1151.978149 -113.298431
638.569885 1005.188232 -336.058411
638.989868 1578.478149 -233.959427
638.799866 1453.088135 -104.491425
648.179871 1317.888184 0.033577
651.089844 1201.348145 -8.156425
647.749878 1179.468140 -20.257431
649.729858 1116.808228 -44.489426
649.649902 1006.428223 -140.593430
650.779846 929.333191 -364.317444
652.749878 1020.518188 -608.368408
647.969849 1027.658203 -607.890381
652.199890 1037.908203 -626.585388
648.819885 1177.548218 -709.595398
652.399902 1231.358154 -727.751404
649.629883 1301.918213 -731.211426
651.549866 1400.388184 -718.819397
651.249878 1456.618164 -697.232422
653.239868 1618.918213 -547.765381
649.059875 1654.158203 -449.259399
647.539856 1657.168213 -418.170410
651.449890 1663.068237 -308.688416
649.009888 1641.208130 -236.220413
647.609863 1623.518188 -202.162430
652.829895 1564.588135 -107.585419
638.569885 1470.898193 -126.041428
638.929871 1499.638184 -595.837402
638.779846 1209.638184 -652.344421
638.569885 1017.898193 -454.399414
638.789856 996.708130 -386.593445
638.539856 1007.828125 -321.016418
638.819885 1007.368164 -277.854431
638.569885 1041.228149 -219.700424
638.519897 1089.638184 -158.718430
638.449890 1130.398193 -127.182419
638.669861 1239.128174 -72.018417
641.009888 1620.348145 -453.606384
641.029846 1620.078125 -455.045410
639.049866 1238.438232 -58.676422
640.119873 1246.978149 -43.048431
640.469849 1230.098145 -42.369431
638.559875 1570.078125 -475.625427
643.819885 1626.418213 -487.613403
639.209900 1258.538208 -51.670425
639.699890 1252.478149 -46.931427
639.819885 1321.668213 -43.139420
640.659851 1306.588135 -33.346420
643.739868 1298.048218 -13.112427
646.259888 1320.268188 -4.941422
642.899902 1364.688232 -24.829422
638.949890 1404.708130 -75.516418
640.399902 1399.568237 -52.131424
645.029846 1424.708130 -32.040421
640.539856 1443.788208 -68.408432
645.019897 1469.078125 -52.699417
638.789856 1490.018188 -130.893417
639.869873 1482.608154 -99.860428
646.669861 1517.888184 -77.713425
639.119873 1524.678223 -147.144424
638.969849 1546.058228 -180.814438
639.979858 1557.048218 -170.628433
646.399902 1594.518188 -159.497421
638.669861 1563.878174 -229.918411
639.259888 1583.278198 -229.296432
644.669861 1617.238159 -210.847427
646.559875 1615.318237 -192.345413
639.039856 1596.738159 -277.327454
638.559875 1579.398193 -279.276428
641.389893 1620.468140 -266.318420
646.049866 1634.958130 -239.997421
638.689880 1593.038208 -317.920410
640.339844 1619.238159 -301.683411
641.909851 1633.608154 -310.303406
646.149902 1653.898193 -313.913452
646.499878 1652.068237 -295.899414
646.969849 1653.828125 -298.589417
639.389893 1614.718140 -356.356445
645.199890 1650.738159 -410.974426
648.409851 1652.888184 -449.692383
642.169861 1635.368164 -416.838379
639.369873 1611.908203 -404.472412
642.819885 1631.668213 -452.830383
646.489868 1617.668213 -530.886414
642.529846 1572.938232 -570.011414
643.829895 1568.298218 -588.102417
646.429871 1587.378174 -578.731384
642.999878 1537.178223 -614.389404
638.679871 1461.878174 -613.182434
638.869873 1473.358154 -613.468384
644.679871 1497.898193 -656.180420
638.889893 1430.108154 -639.406433
639.669861 1447.468140 -647.035400
641.739868 1455.298218 -664.327393
646.149902 1444.858154 -692.107422
646.479858 1444.638184 -693.513428
638.969849 1378.328125 -661.935425
638.989868 1396.478149 -656.953430
640.449890 1390.718140 -679.088379
640.629883 1403.278198 -677.201416
643.709900 1408.578125 -696.658386
644.929871 1415.328125 -699.186401
639.019897 1294.168213 -674.182434
638.839844 1248.028198 -663.551392
639.059875 1248.548218 -671.742432
638.619873 1198.768188 -643.067383
638.799866 1202.598145 -651.166382
640.179871 1196.398193 -673.249390
640.499878 1195.928223 -676.792419
639.119873 1159.898193 -645.778381
639.209900 1163.168213 -648.567383
642.089844 1148.788208 -670.608398
642.889893 1146.518188 -674.718384
639.069885 1127.398193 -625.292419
640.309875 1120.608154 -638.837402
638.619873 1092.228149 -576.801392
638.669861 1097.178223 -583.752380
644.389893 1064.318237 -628.829407
639.189880 1070.318237 -581.320435
640.069885 1062.518188 -587.054382
642.329895 1044.598145 -594.221436
639.059875 1039.898193 -538.798401
639.959900 1029.188232 -543.273438
644.789856 1003.948120 -561.859436
640.169861 1005.998169 -507.674438
643.689880 981.248169 -513.724426
645.959900 976.908203 -523.954407
639.609863 990.698120 -450.566406
639.249878 984.398193 -397.764404
640.659851 969.848206 -405.149414
641.409851 963.018188 -401.134399
644.879883 945.363159 -403.447388
638.719849 998.808228 -350.869446
639.199890 983.278198 -360.561401
640.629883 967.528198 -367.039429
639.209900 986.798218 -316.084412
639.789856 995.168213 -256.837402
642.959900 972.608154 -245.838425
638.659851 1035.638184 -223.562424
640.239868 1009.828125 -211.178421
640.839844 1006.168213 -204.009415
643.619873 987.908203 -201.748428
645.399902 986.278198 -190.399429
644.579895 979.088135 -210.886429
638.499878 1065.558228 -187.254410
638.889893 1045.738159 -191.459427
640.489868 1036.808228 -163.908432
639.829895 1031.188232 -184.131424
643.019897 1018.068237 -159.948410
639.049866 1075.198120 -146.843430
640.219849 1060.888184 -140.365417
641.269897 1064.368164 -122.136429
643.649902 1044.868164 -122.059418
638.899902 1123.688232 -112.319427
639.629883 1097.458130 -115.171417
641.129883 1094.598145 -97.452423
643.879883 1095.298218 -77.096420
