ply
format ascii 1.0
element vertex 1442
property float x
property float y
property float z
end_header
586.326294 279.338135 708.652222
600.776306 -47.621361 629.632202
583.446350 152.238129 720.282227
623.766296 120.878136 518.522217
605.106323 -27.691462 608.422241
607.826294 135.108139 598.302246
622.806335 -33.161362 520.002197
589.786316 306.198120 691.952209
562.786316 331.228119 827.152222
625.116333 131.769135 511.992249
616.946350 101.059143 552.102234
584.666321 193.509140 715.082214
599.166321 101.918144 640.832214
625.126343 -191.561859 505.072205
584.936340 296.108124 715.912231
623.526306 -62.721462 515.782227
639.516296 -139.641861 434.402222
627.086304 229.059128 504.242249
603.936340 92.529144 616.842224
615.066345 236.208130 564.322205
641.626343 -122.161858 424.252197
635.826294 -318.110870 449.032227
596.536316 64.778641 653.142212
626.156311 4.388638 504.102234
598.276306 127.799141 645.822205
629.806335 196.428131 489.982239
566.776306 324.178131 807.112183
632.646301 -312.091858 465.032227
608.836304 129.519135 593.172241
609.976318 -40.901360 583.882202
633.286316 -348.141876 461.082214
614.386292 3.888638 562.792236
580.326294 264.279144 738.222229
604.906311 196.118134 614.182251
620.146301 48.438541 535.012207
581.216309 272.248138 733.952209
606.666321 19.438538 601.652222
638.006348 90.608139 446.802246
617.636292 283.309143 552.502197
618.496338 -29.581461 541.602234
591.226318 149.938141 681.432190
606.336304 77.378540 604.522217
624.286316 144.428131 516.412231
627.466309 -95.411362 495.432251
566.846313 319.248138 806.662231
614.636292 -90.681458 559.572205
632.366333 310.029144 479.622253
600.586304 155.868134 634.862244
598.156311 95.789139 645.722229
629.916321 -249.431870 479.942200
623.406311 134.728134 520.582214
609.146301 143.408127 591.892212
573.546326 266.368134 772.092224
598.936340 272.309143 645.572205
638.096313 -198.131866 440.232239
630.536316 -242.941864 476.982239
633.416321 -303.730865 461.332214
625.446350 -104.401360 505.332214
630.486328 125.968147 485.082214
612.536316 82.818741 573.702209
638.666321 -102.491356 439.442200
622.656311 277.168121 527.352234
622.116333 -99.861359 522.032227
632.516296 80.438545 473.992249
637.056335 221.039139 454.312256
584.156311 288.358124 719.672241
612.426331 94.618141 574.502197
615.036316 -185.101868 555.552246
630.436340 -162.101868 479.212219
595.526306 174.098129 660.482239
585.956299 295.198120 710.802185
582.926331 291.398132 725.862183
626.256348 -198.651871 499.312256
639.536316 115.988136 439.742249
625.716309 -160.001862 502.832214
582.046326 265.648132 729.702209
593.256348 66.748642 669.562195
609.406311 73.698540 589.152222
621.956299 66.368538 526.372253
593.306335 270.898132 673.632202
639.126343 -417.841858 430.462219
625.976318 87.829140 506.782227
584.336304 301.378143 719.012207
639.906311 239.458130 440.482239
590.996338 267.428131 685.102234
630.406311 312.009125 489.422241
607.796326 160.338135 599.012207
587.006348 272.358124 705.082214
591.236328 267.478119 683.862183
625.976318 -111.311455 502.572205
599.716309 219.648132 640.552246
622.306335 182.019135 527.102234
614.586304 73.468643 563.272217
624.986328 154.549133 513.122253
601.286316 27.018639 628.622253
608.926331 67.278641 591.412231
609.656311 143.698135 589.362244
601.216309 179.789139 632.242249
608.956299 71.488640 591.332214
610.106323 176.079132 587.802246
611.636292 139.519135 579.402222
585.086304 266.898132 714.552185
600.156311 214.178131 638.252197
593.646301 60.868534 667.472229
641.416321 -418.601868 419.032227
603.106323 56.088436 620.192200
621.856323 -200.651871 521.182251
608.546326 86.228142 593.662231
585.536316 108.678139 708.932190
638.866333 274.648132 446.452209
598.246338 157.088135 646.592224
592.346313 213.509140 677.192200
628.416321 -92.571457 490.792236
596.146301 115.509148 656.172241
639.776306 -97.301460 434.012207
628.816345 278.618134 496.642212
627.586304 270.478119 502.612244
624.476318 106.559143 514.652222
619.566345 67.548645 538.322205
617.266296 -53.901363 547.222229
636.546326 -281.631866 446.202209
627.016296 -73.191460 498.192200
638.196350 -128.831863 441.222229
568.436340 301.408142 798.322205
584.136292 209.928131 718.102234
607.326294 8.918538 598.122253
595.856323 42.588436 656.052185
632.776306 301.029144 477.362244
607.276306 -4.071461 598.092224
629.716309 189.569138 490.252197
627.596313 296.539124 503.102234
603.476318 176.069138 620.882202
602.256348 264.708130 628.852234
622.116333 304.529144 530.632202
621.236328 110.848145 530.912231
613.936340 19.828739 565.412231
584.596313 276.628143 717.222229
640.986328 106.819145 432.272217
634.346313 -281.281860 457.162231
617.486328 317.309143 553.972229
579.266296 210.418137 742.402222
640.196350 20.718639 434.422241
636.716309 -88.241356 449.472229
611.336304 61.998638 579.242249
624.056335 181.579132 518.362244
638.026306 152.598129 448.042236
635.896301 -37.091461 454.652222
626.786316 -119.121857 498.342224
612.286316 -161.131866 569.772217
638.306335 -58.061462 442.162231
621.536316 239.498138 532.162231
629.566345 -133.261856 484.162231
584.926331 211.868134 714.182190
630.586304 -149.381866 478.752197
568.516296 337.978119 798.722229
637.436340 -195.490860 443.572205
607.766296 108.098145 598.042236
639.456299 -318.230865 430.912231
625.526306 258.708130 512.632202
597.526306 124.668144 649.482239
595.646301 142.158127 659.242188
609.666321 -55.041363 585.132202
614.136292 -150.651871 560.772217
610.766296 -55.121361 579.622253
630.316345 -201.381866 478.962219
639.546326 -300.501862 430.822205
615.926331 48.468639 556.052246
610.856323 79.628540 582.012207
608.826294 102.488144 592.662231
633.456299 97.529144 469.662231
616.446350 219.029129 557.122253
611.636292 27.518639 577.052246
628.976318 -228.240860 485.112244
611.446350 314.218140 584.082214
583.536316 218.549133 721.232239
584.046326 276.388123 719.932190
601.596313 -50.961464 625.442200
626.316345 160.759140 506.622253
589.106323 87.208145 690.702209
630.036316 280.779144 490.612244
628.306335 -162.341873 489.842224
580.136292 183.309128 737.472229
625.986328 24.848438 505.382202
595.356323 175.248138 661.372192
587.226318 234.549133 703.182190
609.706299 116.628136 588.572205
608.686340 184.918137 595.102234
607.286316 322.988129 604.992249
615.606323 -67.381363 555.192200
617.886292 -80.581459 543.552246
639.466309 -344.791870 430.292236
592.096313 128.958130 676.642212
623.546326 17.798538 517.422241
589.106323 72.438545 690.352234
640.346313 -23.011381 432.722229
628.456299 179.259140 496.362244
624.106323 252.549133 519.592224
607.576294 175.259140 600.412231
638.526306 -39.631363 441.462219
616.206299 249.138123 558.912231
630.766296 -297.681854 474.672241
630.856323 191.958130 484.642212
609.366333 286.908142 593.862244
593.456299 271.019135 672.902222
628.576294 -159.271866 488.562256
634.376343 -125.081856 460.372253
584.476318 235.158127 716.922241
620.776306 -105.541359 528.612244
640.696350 -16.951441 431.112244
593.786316 92.228142 667.462219
599.966309 203.079132 638.992249
619.096313 -206.061859 534.852234
598.316345 18.108540 643.252197
589.606323 230.638138 691.232239
640.976318 112.059143 432.462219
630.266296 -164.461868 480.002197
639.486328 -407.191864 428.882202
625.026306 218.118134 514.292236
625.696350 248.498138 511.582214
632.656311 73.548645 473.152222
617.446350 -121.471855 544.892212
569.446350 335.559143 794.022217
636.786316 -352.071869 443.512207
612.956299 38.308739 570.652222
564.976318 307.968140 815.732239
633.896301 52.878536 466.502197
597.936340 74.548645 646.352234
586.426331 248.529144 707.502197
612.606323 -26.781361 571.062256
612.586304 216.728134 576.292236
637.376343 -140.351868 445.062256
580.556335 210.718140 735.942200
605.836304 260.259125 610.872253
623.206299 258.829132 524.222229
634.566345 256.829132 467.492249
620.066345 234.238129 539.342224
619.276306 193.848129 542.432251
592.316345 227.309128 677.622192
638.956299 115.658134 442.622253
597.676331 16.588638 646.452209
604.866333 58.488636 611.462219
579.616333 300.978119 742.552185
633.316345 173.618134 471.952209
625.776306 93.228142 507.882202
612.096313 -68.081459 572.702209
635.626343 -247.141861 451.512207
624.446350 143.259140 515.582214
639.956299 -150.251862 431.992249
626.436340 -34.061462 501.882202
606.456299 128.178131 605.012207
630.726318 -111.631355 478.822205
632.956299 75.768639 471.712219
638.336304 -37.051460 442.482239
639.906311 -377.051880 427.432251
606.046326 34.178539 605.032227
606.436340 96.118141 604.422241
622.876343 54.108540 521.542236
609.316345 200.998138 592.272217
610.956299 240.748138 584.942200
639.076294 23.148537 440.062256
630.916321 -162.181870 476.842224
634.836304 -193.011871 456.612244
563.416321 314.988129 823.692200
634.486328 252.388123 467.832214
606.556335 319.259125 608.582214
588.826294 207.539139 694.612183
624.196350 -155.691864 510.492249
592.226318 127.678139 675.992188
618.306335 -25.321442 542.622253
619.416321 123.688148 540.242249
634.686340 244.968140 466.642212
593.926331 135.088135 667.672241
610.956299 33.978638 580.572205
583.986328 130.918137 717.152222
563.826294 340.458130 822.142212
622.816345 52.468639 521.782227
626.796326 -180.581863 496.972229
566.956299 289.228119 805.472229
606.936340 -7.311431 599.732239
606.496338 21.318737 602.522217
600.096313 181.918137 637.852234
585.766296 314.368134 712.162231
585.596313 255.858124 711.752197
593.206299 181.378128 672.212219
613.006348 -62.811462 568.272217
571.406311 274.718140 782.962219
637.346313 122.319145 450.792236
614.726318 298.779144 567.362244
583.516296 131.238129 719.522217
640.506348 -359.091858 424.802246
617.706299 -22.171412 545.672241
595.236328 166.428131 661.792236
639.406311 248.338135 443.162231
567.606323 337.829132 803.272217
632.106323 -208.931870 469.892212
566.336304 293.428131 808.662231
598.316345 71.148544 644.412231
589.586304 182.738129 690.322205
633.306335 32.448540 469.032227
623.256348 207.428131 522.882202
639.796326 -287.230865 429.882202
636.306335 238.958130 458.442200
635.516296 83.388542 459.102234
615.356323 -13.571442 557.582214
610.346313 130.118134 585.632202
630.136292 -258.490845 478.692200
639.986328 -274.110870 429.192200
616.496338 -125.001862 549.562256
600.606323 240.279144 636.562256
630.746338 188.648132 485.102234
611.136292 143.809128 581.982239
598.296326 162.208130 646.432251
636.726318 -175.401871 447.552246
614.426331 -62.981361 561.212219
636.646301 268.809143 457.402222
592.386292 284.138123 678.522217
615.426331 -136.211868 554.662231
632.976318 240.019135 475.062256
637.606323 -169.911865 443.312256
608.596313 -122.521858 589.032227
625.266296 84.888145 510.252197
639.436340 149.779129 440.932251
606.306335 14.948539 603.322205
610.716309 316.588135 587.732239
637.136292 -376.860870 441.252197
632.666321 13.918538 471.832214
608.876343 287.618134 596.312256
610.146301 -44.181461 582.932251
603.696350 316.319122 622.762207
616.716309 -86.771355 549.272217
590.306335 327.498138 689.782227
610.176331 -75.651360 582.102234
631.046326 -107.611359 477.352234
617.406311 95.809143 549.712219
626.626343 206.509140 506.052246
581.756348 204.519135 729.812195
636.986328 -350.201874 442.572205
629.026306 -198.451859 485.492249
600.536316 303.579132 638.272217
640.516296 280.858124 438.332214
610.176331 312.598145 590.342224
618.346313 291.259125 549.132202
606.886292 -54.311462 598.972229
641.786316 -190.631866 422.012207
634.166321 -265.240845 458.442200
608.556335 92.938141 593.802246
567.646301 275.458130 801.742188
601.186340 120.128136 631.132202
610.796326 -29.691462 580.022217
617.506348 -103.901360 544.932251
629.716309 -112.961456 483.882202
625.626343 -163.240860 503.182251
618.116333 -86.491356 542.272217
624.986328 -253.831863 504.472229
612.806335 -38.071461 569.802246
627.676331 -303.121857 489.982239
618.306335 -46.981361 542.182251
625.216309 -7.131371 508.532227
600.206299 146.368134 636.572205
631.816345 -281.681854 469.802246
631.456299 -286.541870 471.472229
627.156311 -95.491356 496.982239
641.956299 -302.291870 418.772217
636.616333 -24.621361 451.312256
635.636292 95.368141 458.732239
608.146301 32.668537 594.572205
632.606323 199.958130 476.072205
635.536316 -231.051865 452.292236
619.726318 46.688538 537.072205
635.086304 -342.661865 452.172241
611.146301 -146.261871 575.762207
624.736328 -261.261871 505.542236
636.176331 -363.581879 446.302246
635.926331 76.448540 456.902222
570.686340 338.338135 787.912231
596.516296 297.329132 658.192200
591.056335 178.218140 682.902222
629.626343 65.998642 488.092224
611.336304 -77.391357 576.322205
625.536316 116.009148 509.582214
611.626343 66.038643 577.892212
636.456299 300.148132 459.012207
640.446350 17.358639 433.072205
596.576294 314.269135 658.262207
638.106323 295.448120 450.652222
618.336304 -13.921412 542.742249
622.966309 217.708130 524.522217
606.006348 182.668137 608.382202
634.266296 -208.161865 459.132202
628.426331 -277.021881 486.812256
636.466309 181.948135 456.432251
622.636292 -245.201859 516.362244
624.816345 186.868134 514.652222
601.246338 180.878128 632.092224
588.936340 322.588135 696.542236
641.206299 -101.431458 426.762207
603.866333 -66.261360 613.792236
629.606323 92.948143 488.772217
609.596313 -20.681421 586.192200
613.666321 70.268639 567.832214
613.266296 -80.371361 566.622253
591.916321 39.678539 675.682190
635.346313 -54.011364 457.042236
596.806335 145.799133 653.522217
624.786316 -83.391357 509.092224
580.696350 255.368134 736.192200
615.356323 -67.381363 556.452209
601.096313 79.448540 630.732239
641.306335 -122.651855 425.832214
636.086304 256.269135 459.912231
618.146301 209.418137 548.402222
616.346313 -97.101456 550.862244
600.316345 -30.791361 632.252197
592.856323 58.658535 671.372192
615.096313 96.218140 561.242249
588.046326 319.688141 700.922241
631.076294 -296.931854 473.182251
610.616333 15.188539 581.872253
621.736328 -34.071461 525.322205
602.956299 44.358540 620.692200
616.236328 212.848129 558.032227
618.456299 195.549133 546.572205
637.106323 173.138138 453.072205
631.496338 -6.371361 477.232239
582.076294 143.848129 726.952209
622.356323 -64.001358 521.602234
629.396301 -179.691864 484.062256
633.846313 20.798637 466.102234
594.686340 229.368134 665.872192
593.256348 109.438141 670.442200
639.466309 -215.331863 433.032227
634.926331 -59.671463 459.002197
576.416321 203.648132 756.482239
601.826294 206.509140 629.752197
621.346313 140.178131 530.972229
619.836304 168.069138 539.082214
629.396301 177.708130 491.602234
597.956299 92.779144 646.652222
627.916321 138.178131 498.152222
608.376343 311.618134 599.322205
635.346313 -159.161865 454.782227
568.656311 295.628143 797.132202
620.236328 110.728142 535.912231
637.126343 -282.841858 443.272217
605.946350 107.309143 607.122253
622.236328 213.789139 528.112244
615.306335 -175.421860 554.402222
630.296326 65.118538 484.762207
613.926331 -161.701859 561.602234
615.086304 218.559128 563.882202
589.336304 295.098145 693.922241
623.116333 202.738129 523.492249
640.406311 -310.461853 426.362244
590.056335 86.039139 685.912231
632.276306 157.579132 476.822205
576.036316 331.509125 761.062195
591.976318 79.638542 676.212219
622.386292 125.848137 525.482239
600.906311 96.819145 632.022217
641.246338 -354.610870 421.212219
576.296326 224.509140 757.512207
631.316345 245.338135 483.462219
579.676331 253.819122 741.272217
603.196350 14.248639 618.862244
622.016296 42.848438 525.572205
592.466309 321.498138 678.892212
618.036316 -134.811859 541.652222
637.176331 -133.471863 446.192200
596.696350 34.338436 651.692200
630.806335 -62.391361 479.472229
623.356323 84.329140 519.752197
598.786316 178.638138 644.332214
596.596313 107.408142 653.732239
602.936340 -37.441460 619.052246
600.256348 280.868134 639.162231
648.716309 21.028637 423.212219
655.966309 -233.351868 412.062256
654.626343 -228.851868 412.872253
651.626343 -139.101868 417.022217
657.526306 -381.301880 406.912231
651.476318 -175.360870 416.022217
660.176331 -379.461853 406.352234
664.446350 -406.511871 405.812256
676.336304 -392.171875 404.802246
621.216309 394.218140 574.922241
619.186340 405.329132 586.022217
585.536316 393.799133 735.252197
624.146301 405.188141 563.712219
625.166321 395.688141 557.412231
570.046326 386.898132 803.632202
587.876343 380.188141 722.282227
613.706299 402.809143 610.212219
579.626343 409.438141 764.602234
571.366333 385.938141 797.552185
627.196350 392.638123 547.762207
559.116333 398.178131 854.762207
617.386292 396.009125 592.462219
584.306335 388.468140 739.802185
578.276306 378.448120 765.152222
612.686340 397.658142 613.892212
593.766296 383.059143 696.322205
641.616333 402.678131 484.722229
562.236328 376.559143 836.922241
565.056335 390.098145 826.652222
611.106323 383.178131 618.422241
556.186340 402.759125 868.772217
621.506348 410.088135 576.432251
577.526306 371.259125 767.222229
624.826294 402.408142 560.152222
617.896301 400.108124 590.902222
607.076294 410.289124 641.342224
592.616333 386.269135 702.062195
615.296326 401.888123 602.922241
575.786316 377.468140 776.142212
568.826294 405.718140 812.492188
621.496338 387.049133 572.412231
638.096313 398.019135 499.722229
650.586304 407.168121 445.212219
573.326294 360.299133 784.162231
583.266296 403.918121 747.252197
594.026306 411.019135 700.162231
576.166321 414.309143 780.992188
589.016296 380.478119 717.212219
581.176331 398.019135 755.562195
558.106323 396.259125 858.962219
575.106323 366.138123 777.192200
561.896301 414.809143 845.242188
603.176331 399.809143 656.992188
589.796326 397.898132 716.822205
635.526306 409.908142 513.402222
570.956299 388.228119 799.762207
574.986328 384.388123 780.992188
586.046326 378.918121 730.272217
572.586304 367.918121 788.842224
599.266296 372.978119 669.792236
574.186340 414.738129 789.972229
590.476318 403.398132 714.732239
625.956299 408.448120 556.162231
600.106323 407.398132 672.142212
580.906311 394.358124 756.122192
578.836304 398.408142 766.162231
559.986328 411.128143 853.162231
564.236328 384.329132 829.282227
594.226318 403.759125 697.942200
570.246338 389.898132 803.272217
555.936340 403.128143 869.942200
551.386292 434.898132 886.932190
550.726318 425.708130 888.452209
546.406311 469.118134 899.852234
549.836304 430.498138 890.762207
551.926331 421.608124 885.402222
654.036316 -532.411865 403.912231
655.696350 -531.801819 400.372253
648.556335 -496.860870 407.492249
642.476318 -469.301880 418.092224
646.216309 -515.161865 420.422241
632.876343 -467.651855 469.442200
641.366333 -475.391876 427.142212
641.476318 -474.641876 426.172241
644.296326 -502.321869 424.492249
644.626343 -490.891876 417.102234
640.526306 -488.651855 438.232239
639.626343 -480.331879 439.022217
637.646301 -483.881866 451.562256
645.116333 -496.871857 417.402222
642.496338 -475.181854 420.912231
620.736328 -433.980865 536.182251
628.256348 -457.711853 494.522217
631.856323 -470.230865 483.732239
626.436340 -451.871857 503.732239
614.836304 -415.801880 572.072205
631.846313 -470.911865 489.222229
627.936340 -456.391876 493.822205
618.056335 -426.480865 558.522217
568.206299 96.698143 801.672241
565.186340 200.108139 816.282227
581.166321 -231.901871 739.162231
580.596313 -173.591873 741.992188
594.696350 -353.851868 674.362183
572.956299 -247.631866 778.332214
583.796326 -269.971863 726.542236
568.846313 105.878143 798.612183
571.436340 -192.941864 785.662231
569.426331 -81.781357 795.472229
578.146301 -94.981361 753.832214
580.336304 -297.001862 743.012207
601.696350 -350.230865 640.942200
571.516296 92.088142 785.862183
575.826294 -5.721461 765.082214
596.706299 -252.561859 664.962219
575.726318 -266.411865 765.072205
566.026306 210.378128 812.272217
582.976318 -67.521362 730.862183
584.846313 -314.301880 721.442200
585.806335 -171.451859 717.112183
565.976318 216.829132 812.532227
583.986328 -40.551460 726.092224
590.976318 -154.501862 692.492188
576.856323 45.258636 760.292236
571.856323 -77.851463 783.912231
591.606323 -321.371857 689.162231
571.856323 -28.751362 784.022217
571.736328 121.228142 784.862183
593.686340 -179.891861 679.502197
572.026306 26.588436 783.282227
565.266296 157.188141 815.812195
580.426331 -227.651871 742.722229
575.086304 -196.001862 768.232239
590.216309 -304.151855 695.832214
571.056335 -118.041855 787.612183
567.866333 202.088135 803.502197
567.936340 97.628143 802.942200
591.706299 -174.301865 688.982239
595.686340 -267.671844 669.812195
587.576294 -223.081863 708.612183
582.906311 -144.121872 731.042236
581.206299 -105.951462 739.222229
587.326294 -98.941460 710.002197
579.066345 -87.341461 749.472229
564.286316 173.299133 820.542236
572.386292 -134.761856 781.272217
574.356323 -298.921875 771.522217
576.676331 -11.661402 761.012207
588.806335 -250.591873 702.652222
570.436340 158.168137 791.132202
576.626343 -273.561859 760.742188
601.756348 -296.571869 640.752197
568.676331 146.248138 799.502197
574.946350 -2.881361 769.282227
591.936340 -165.841873 687.912231
571.806335 69.398544 784.422241
574.156311 70.498642 773.222229
585.576294 -145.341873 718.312195
580.176331 -163.551865 744.002197
577.766296 40.628536 755.952209
575.766296 65.328743 765.522217
585.826294 -330.511871 716.732239
596.806335 -315.101868 664.372192
571.836304 -3.831461 784.162231
583.476318 -199.101868 728.182190
583.306335 -289.591858 728.852234
597.426331 -313.381866 661.412231
565.496338 179.198135 814.762207
573.806335 42.578739 774.852234
605.116333 -384.221863 624.552246
583.216309 -95.571457 729.642212
582.356323 -310.441864 733.322205
597.306335 -256.451843 662.082214
583.636292 -277.240875 727.302185
562.586304 235.079132 828.772217
583.176331 -129.131866 729.762207
576.336304 -117.221855 762.422241
582.016296 -97.831459 735.362183
586.066345 -335.791870 715.572205
578.136292 -201.641861 753.672241
573.406311 -47.901363 776.582214
568.066345 -25.471462 802.112183
581.376343 -291.601868 738.042236
565.306335 140.588135 815.582214
569.416321 92.928139 795.892212
569.726318 51.838436 794.302185
579.896301 -122.201859 745.422241
572.116333 -203.161865 782.402222
573.986328 -286.230865 773.322205
589.286316 -238.931870 700.392212
569.736328 175.238129 794.522217
567.136292 63.528637 806.702209
598.006348 -301.781860 658.662231
599.836304 -273.781860 649.972229
574.216309 -38.131363 772.722229
574.446350 25.128536 771.742188
582.076294 -259.471863 734.752197
595.296326 -302.701874 671.562195
573.806335 84.448143 774.922241
586.806335 -246.661865 712.222229
583.976318 -254.711868 725.702209
581.086304 -13.201441 739.962219
574.146301 -259.911865 772.622192
582.266296 -112.731361 734.152222
594.636292 -292.401855 674.742188
596.466309 -318.191864 665.982239
584.396301 -173.841873 723.852234
600.366333 -327.651855 647.342224
565.816345 240.878143 813.372192
562.426331 306.738129 829.652222
574.976318 74.448540 769.332214
580.986328 -75.851463 740.332214
575.436340 40.418537 767.052185
591.816345 -347.711853 688.092224
567.716309 191.748138 804.212219
596.106323 -298.531860 667.752197
580.576294 -152.261871 742.132202
574.546326 -249.751862 770.742188
578.056335 2.138638 754.472229
574.176331 100.698143 773.182190
572.686340 -108.731361 779.892212
571.056335 -119.581856 787.642212
581.826294 -78.361359 736.322205
576.666321 -168.281860 760.772217
573.016296 -80.261360 778.372192
581.616333 -98.421455 737.272217
589.536316 -245.521866 699.182190
578.896301 23.958637 750.492188
577.266296 64.538643 758.392212
587.636292 -219.581863 708.302185
602.026306 -318.490875 639.442200
574.706299 93.698143 770.622192
580.836304 -237.621872 740.702209
574.906311 -251.061859 768.982239
576.106323 77.398544 763.932190
599.346313 -290.601868 652.262207
603.756348 -354.211853 631.102234
584.196350 -266.781860 724.652222
578.316345 -101.621361 753.022217
582.986328 -98.871361 730.762207
570.236328 77.378540 791.932190
585.486328 -100.871361 718.822205
568.966309 41.688538 797.932190
579.086304 -314.201874 748.902222
580.346313 -143.331863 743.242188
599.666321 -323.421875 650.692200
575.696350 37.748638 765.802185
574.806335 -245.490860 769.472229
593.886292 -306.081879 678.322205
595.806335 -282.971863 669.182190
579.586304 29.928539 747.222229
587.376343 -291.110870 709.402222
574.896301 -21.491362 769.512207
594.236328 -259.641846 676.732239
572.436340 -208.781860 780.882202
593.726318 -223.421860 679.252197
560.936340 314.898132 836.792236
579.966309 -288.721863 744.792236
567.916321 35.918537 802.932190
595.626343 -297.941864 670.022217
579.126343 -153.911865 749.042236
576.216309 -273.961853 762.692200
593.676331 -344.081879 679.242188
571.696350 -37.921463 784.732239
600.866333 -306.121857 644.982239
591.286316 -204.061859 690.932190
587.086304 -320.740875 710.722229
571.996338 -233.161865 782.942200
578.166321 -102.151360 753.722229
578.296326 -86.991356 753.122192
593.146301 -293.581879 681.892212
594.616333 -322.921875 674.802185
592.416321 -337.011871 685.252197
591.686340 -266.911865 688.912231
579.846313 -174.651871 745.582214
590.146301 -173.751862 696.442200
579.736328 -43.751362 746.352234
580.906311 10.868638 740.872192
596.236328 -262.421844 667.172241
585.446350 -228.931870 718.722229
590.146301 -243.461868 696.272217
564.936340 262.198120 817.622192
593.186340 -177.301865 681.892212
575.906311 -117.081856 764.482239
596.846313 -322.041870 664.152222
568.326294 186.769135 801.272217
568.896301 199.678131 798.602234
575.906311 10.788539 764.752197
580.686340 -171.381866 741.572205
575.736328 -10.181421 765.512207
598.686340 -273.031860 655.492188
573.966309 -49.581463 773.882202
577.866333 63.428539 755.512207
577.716309 -123.401855 755.852234
590.836304 -341.651855 692.802185
581.866333 -70.001358 736.122192
561.486328 307.738129 834.162231
593.076294 -271.131866 682.232239
610.276306 -377.480865 593.512207
598.416321 -224.581863 654.342224
601.636292 -191.581863 627.972229
577.516296 132.468140 749.962219
597.866333 -154.131866 648.762207
615.886292 -335.821869 549.692200
580.156311 74.078743 739.612183
585.836304 8.898540 709.472229
597.216309 -212.291870 660.942200
612.126343 -350.691864 577.382202
622.496338 -437.771881 518.002197
576.336304 108.559143 761.192200
611.346313 -316.171875 578.132202
605.276306 -292.110870 616.422241
601.006348 -233.191864 637.792236
609.226318 -322.401855 593.432251
598.846313 -205.711868 648.922241
571.046326 205.918137 784.422241
582.826294 50.288639 724.502197
600.646301 -190.901871 634.692200
588.926331 -40.581463 694.882202
610.546326 -345.571869 587.502197
605.616333 -347.791870 621.462219
600.706299 -267.371857 644.342224
607.146301 -253.821869 598.572205
575.476318 117.539146 765.872192
613.926331 -408.051880 572.632202
583.226318 5.728639 727.712219
587.536316 -29.091461 702.842224
598.076294 -158.911865 647.992249
595.486328 -92.121361 656.842224
607.236328 -340.411865 609.402222
611.776306 -291.881866 571.982239
609.016296 -283.141876 589.662231
595.386292 -127.051857 662.132202
603.036316 -200.881866 619.652222
611.626343 -291.490875 572.972229
620.526306 -407.811859 527.542236
595.796326 -106.191460 656.592224
587.846313 -36.751362 701.702209
607.406311 -257.471863 597.252197
589.516296 -63.291363 693.842224
588.526306 -81.541359 703.002197
594.486328 -172.411865 674.312195
599.276306 -140.141861 637.322205
580.306335 73.058739 738.742188
604.686340 -272.421875 617.812256
605.226318 -221.411865 607.412231
576.706299 131.388138 755.642212
609.376343 -270.191864 585.492249
614.086304 -353.701874 564.372253
604.476318 -242.071869 615.272217
599.036316 -140.941864 639.042236
577.286316 134.759140 751.182190
605.186340 -282.401855 615.732239
621.466309 -427.061859 523.612244
608.136292 -308.980865 599.092224
590.696350 -57.201462 684.952209
604.116333 -215.191864 614.192200
586.836304 -10.821442 705.242188
599.136292 -221.441864 649.002197
596.266296 -102.221458 652.862183
580.756348 44.198540 739.492188
613.896301 -410.761871 573.222229
612.356323 -310.891876 570.542236
585.806335 -38.691460 715.952209
599.016296 -197.971863 646.712219
595.596313 -107.631355 658.132202
600.446350 -200.141861 637.282227
603.446350 -277.931854 627.062256
588.666321 -15.521388 693.352234
586.786316 -8.711451 705.302185
617.446350 -406.671875 548.442200
584.216309 -8.421412 722.822205
600.446350 -238.911865 642.392212
600.836304 -262.681854 642.862244
611.886292 -327.461853 575.912231
605.476318 -312.661865 617.792236
613.966309 -406.031860 572.092224
578.976318 70.988640 748.102234
580.086304 56.228642 742.492188
582.756348 59.838436 723.762207
612.506348 -391.651855 580.192200
619.816345 -386.061859 529.502197
612.696350 -391.860870 578.872253
586.026306 28.348438 705.582214
601.066345 -278.421875 643.372253
594.906311 -156.011871 669.252197
593.076294 -107.731361 675.382202
611.596313 -367.501862 583.192200
611.646301 -318.561859 576.392212
585.076294 -16.691433 717.992188
596.146301 -131.211868 657.512207
608.906311 -263.471863 587.822205
573.326294 182.468140 771.972229
579.616333 66.048645 744.342224
616.506348 -357.631866 548.322205
603.046326 -235.811859 624.182251
604.256348 -285.081879 622.422241
567.106323 247.658142 805.842224
602.996338 -309.401855 634.292236
597.276306 -176.451859 655.782227
594.066345 -151.911865 674.452209
609.246338 -353.871857 597.442200
604.476318 -293.911865 622.122253
606.176331 -221.681870 600.962219
616.316345 -396.751862 554.802246
592.966309 -129.421860 679.002197
606.366333 -302.751862 610.392212
622.186340 -430.191864 519.122253
604.496338 -278.141876 619.892212
586.706299 -42.621361 710.312195
616.456299 -382.021881 551.932251
610.316345 -282.551880 580.722229
595.046326 -164.691864 669.472229
611.296326 -312.921875 578.002197
609.826294 -370.871857 595.762207
589.976318 -58.041363 689.972229
587.506348 5.858640 698.392212
611.006348 -367.941864 587.272217
591.966309 -73.851463 678.482239
592.626343 -62.581463 672.502197
615.196350 -362.901855 558.022217
599.586304 -146.831863 636.102234
595.956299 -154.351868 661.842224
611.576294 -313.591858 576.202209
607.056335 -307.761871 606.352234
585.576294 25.538639 709.002197
605.746338 -338.240875 619.272217
569.256348 -153.071869 795.162231
567.436340 -285.011871 797.292236
562.716309 200.658127 827.722229
563.996338 56.728642 819.092224
563.466309 15.758639 819.652222
563.336304 55.488636 821.282227
569.756348 -212.791870 791.702209
572.836304 -299.831879 778.762207
563.106323 33.868538 821.412231
563.956299 11.368638 817.892212
565.076294 -145.711868 809.382202
566.896301 -258.251862 799.912231
562.616333 143.088135 826.342224
567.606323 -69.941460 803.192200
564.706299 -49.711464 813.532227
566.006348 -233.740860 803.632202
568.196350 -130.381866 799.422241
565.076294 -45.961460 812.382202
563.606323 105.678139 821.902222
562.426331 204.059128 828.822205
560.766296 283.178131 836.752197
568.996338 -159.451859 795.842224
567.676331 -204.381866 798.912231
569.416321 -157.971863 794.502197
566.086304 -141.941864 806.132202
565.236328 32.528637 814.232239
566.596313 -224.980865 801.902222
566.596313 -90.201462 805.992188
573.556335 -311.291870 794.402222
569.736328 -295.391876 789.742188
554.906311 -293.521881 862.672241
553.216309 -284.011871 865.872192
557.916321 -314.851868 857.792236
554.386292 -73.601463 858.382202
550.986328 -6.831451 872.892212
548.016296 79.378540 885.712219
557.176331 -241.681870 845.762207
554.376343 -152.811859 857.912231
553.546326 -206.251862 860.962219
555.346313 -212.051865 853.512207
547.406311 226.138138 889.212219
553.076294 -44.761360 864.002197
546.006348 222.378128 894.942200
546.756348 236.309128 891.952209
555.846313 -152.041870 851.842224
556.926331 -193.551865 847.112183
551.506348 -15.051417 870.692200
556.866333 -187.311859 847.412231
553.236328 -75.211464 863.122192
549.826294 45.448540 878.022217
551.846313 -162.131866 868.312195
548.576294 21.608540 883.012207
547.956299 88.579140 886.012207
551.356323 -192.541870 870.102234
556.616333 -178.980865 848.482239
557.406311 -232.331863 844.892212
548.806335 31.078739 882.132202
556.426331 -189.471863 849.202209
552.436340 -210.281860 865.522217
547.576294 177.628128 888.192200
552.376343 -234.721863 865.622192
547.326294 150.009140 889.022217
547.856323 133.918137 886.722229
548.646301 113.588142 883.342224
554.526306 -114.261360 857.532227
556.326294 -178.151871 849.712219
555.696350 -164.681870 852.382202
550.916321 -163.601868 872.142212
548.536316 60.818737 883.432190
550.836304 -157.881866 872.502197
608.766296 -424.571869 674.072205
590.546326 -381.081879 741.932190
591.096313 -377.490875 740.602234
571.646301 -349.240875 810.432190
577.556335 -354.240875 789.742188
573.036316 -338.011871 807.352234
594.016296 -392.740875 728.532227
564.776306 -331.821869 836.172241
584.746338 -359.781860 764.632202
578.236328 -353.480865 787.532227
583.196350 -374.711853 767.722229
581.096313 -364.661865 776.262207
595.196350 -389.171875 725.062195
583.426331 -375.261871 766.842224
564.306335 -260.711853 808.262207
560.716309 208.198135 834.552185
563.446350 -121.661858 815.422241
561.966309 117.918144 827.732239
562.646301 -110.011360 818.332214
563.496338 -234.240860 811.682190
563.956299 -111.931458 814.112183
563.836304 -188.781860 812.042236
562.656311 -229.411865 814.522217
562.996338 -100.691460 817.522217
563.226318 -154.281860 815.092224
562.766296 -232.691864 814.042236
557.636292 -307.081879 856.772217
559.396301 -321.581879 854.522217
556.786316 -293.641876 855.782227
563.986328 -301.501862 821.322205
562.456299 -319.851868 840.922241
570.166321 -314.031860 809.302185
559.746338 -311.081879 849.152222
559.176331 -277.740875 840.842224
559.226318 -281.480865 841.822205
567.206299 -304.961853 812.712219
570.646301 -308.441864 803.502197
563.256348 -268.161865 813.992188
556.086304 393.698120 868.022217
560.206299 307.608124 839.552185
557.346313 332.039124 858.732239
562.356323 -184.740860 817.072205
557.366333 301.648132 858.102234
555.726318 393.378143 870.382202
559.146301 305.838135 846.482239
557.576294 172.458130 854.522217
558.766296 151.319138 846.332214
560.436340 -18.651392 832.492188
557.396301 276.759125 857.482239
561.046326 103.438141 830.582214
561.166321 -103.081459 826.272217
558.406311 282.549133 850.892212
560.216309 152.009140 836.862183
561.416321 -129.321869 824.222229
559.276306 290.299133 845.352234
560.576294 79.008644 833.212219
560.976318 106.039139 831.052185
560.576294 171.569138 834.812195
558.326294 156.128128 849.302185
558.646301 273.988129 849.232239
561.016296 97.398140 830.692200
560.166321 215.458130 838.242188
557.776306 243.888123 854.402222
561.896301 -166.041870 820.432190
555.156311 393.448120 874.142212
556.176331 341.378143 866.542236
556.676331 346.098145 863.352234
560.466309 142.519135 835.042236
558.636292 245.898132 848.782227
555.846313 308.289124 868.172241
557.756348 366.678131 856.582214
562.136292 -145.171860 819.222229
559.536316 337.799133 844.422241
556.576294 324.728119 863.622192
561.136292 90.898140 829.782227
557.546326 374.348145 858.112183
561.256348 -87.791359 825.942200
558.486328 276.769135 850.322205
548.026306 388.059143 893.812195
544.976318 389.748138 901.502197
554.276306 39.198540 863.342224
553.016296 382.069122 881.112183
554.646301 -0.491362 860.732239
545.506348 415.069122 901.252197
552.446350 123.128136 871.502197
551.666321 259.569122 879.252197
555.906311 -80.191460 854.172241
553.356323 277.618134 875.812195
552.406311 27.938538 867.522217
554.596313 260.059143 871.962219
549.196350 255.368134 885.242188
556.666321 -115.471458 850.782227
553.826294 177.519135 870.372192
554.516296 -71.441460 858.022217
550.186340 144.648132 878.052185
553.466309 327.108124 877.652222
555.376343 188.259140 866.952209
550.036316 409.559143 889.712219
553.166321 360.448120 879.812195
555.646301 159.069138 865.032227
547.076294 387.368134 896.152222
552.686340 366.338135 881.262207
548.246338 333.549133 890.932190
548.666321 211.779129 884.692200
549.576294 172.829132 880.782227
547.496338 319.878143 892.232239
549.356323 233.648132 883.922241
553.036316 54.098438 867.072205
555.146301 31.998638 860.872192
551.406311 210.819138 877.812195
551.356323 211.988129 878.012207
552.096313 234.118134 877.092224
553.846313 127.668144 868.182190
546.916321 383.108124 896.382202
549.126343 328.888123 888.562195
553.826294 160.829132 869.642212
557.736328 59.488636 851.412231
560.856323 -259.091858 825.502197
555.676331 275.329132 868.692200
562.026306 -208.041870 818.832214
559.596313 -88.831459 836.732239
558.796326 10.508639 843.692200
558.736328 -214.661865 840.012207
556.236328 156.748138 862.892212
560.866333 -106.981361 828.182190
556.286316 158.938141 862.622192
556.426331 169.378128 861.902222
556.996338 166.688141 858.132202
560.906311 -255.061859 825.272217
557.036316 6.748639 855.042236
558.216309 13.418538 847.492188
561.646301 -176.571869 821.892212
558.346313 -170.021866 843.312195
559.076294 4.288539 841.772217
556.296326 262.928131 864.462219
560.356323 -78.321457 831.972229
561.286316 -176.381866 824.242188
561.856323 -188.431870 820.272217
556.886292 28.668537 856.372192
559.106323 -82.891357 840.032227
560.766296 -159.251862 827.872192
557.766296 -85.561455 848.642212
558.316345 -31.231361 846.032227
555.156311 341.938141 873.232239
558.036316 66.738640 849.612183
560.286316 -152.201859 831.132202
560.046326 -98.481361 833.632202
559.826294 -63.111362 835.732239
561.806335 -191.521866 820.602234
562.086304 -234.371872 817.992188
661.936340 316.908142 372.402222
660.976318 360.988129 378.872223
661.996338 82.348442 379.472229
662.406311 351.498138 367.442230
662.196350 249.118134 372.422241
661.946350 204.188141 375.972229
667.476318 -128.211868 341.402222
657.376343 364.289124 408.162231
657.546326 309.789124 408.522217
662.326294 290.128143 370.052246
663.546326 233.478134 361.862244
661.006348 96.638145 387.062225
663.096313 275.269135 364.252228
665.346313 74.288643 352.272217
656.576294 356.998138 415.002197
664.626343 150.319138 355.772217
658.986328 327.108124 396.202209
658.016296 407.968140 401.512207
655.906311 402.588135 418.972229
665.346313 -22.771391 355.402222
664.976318 134.579132 353.392212
658.376343 253.208130 403.612244
666.976318 -158.301865 346.432220
663.366333 235.498138 363.282227
667.266296 -236.191864 346.592224
660.586304 383.398132 381.272217
660.696350 135.628128 388.392212
667.706299 -204.151871 341.892212
658.956299 323.468140 396.582214
656.726318 401.769135 412.312256
664.136292 -70.311462 366.882233
663.306335 -23.221462 372.092224
658.616333 308.478119 399.822205
663.576294 -24.151390 369.902222
666.176331 14.938539 347.382233
663.556335 251.319122 361.282227
660.796326 113.998146 388.242249
666.776306 -41.421463 344.292236
662.756348 210.559128 369.102234
662.136292 322.698120 370.582214
658.686340 346.658142 398.042236
661.516296 284.218140 376.882233
665.296326 -125.031860 359.102234
667.796326 -228.671860 341.982239
663.086304 183.529129 367.282227
664.736328 98.238144 356.512207
656.746338 325.918121 414.552246
660.306335 333.838135 385.202209
667.386292 -235.401871 345.532227
665.236328 183.478134 349.702209
663.126343 409.238129 359.712219
667.586304 -183.740860 342.242249
664.496338 -54.111362 363.352234
663.426331 277.598145 361.462219
663.786316 147.009140 362.762207
661.296326 192.779129 381.642212
663.116333 286.079132 363.742249
666.006348 -22.461451 350.042236
655.896301 404.748138 418.962219
664.966309 -54.251362 359.572235
661.336304 338.738129 376.562225
665.316345 162.488129 349.702209
666.576294 -33.041363 345.662231
661.056335 358.309143 378.302246
663.856323 271.698120 358.142212
661.976318 240.289124 374.502228
660.656311 163.348129 387.792236
656.166321 381.848145 417.492249
667.006348 -49.401363 342.692230
662.176331 174.478134 374.992249
661.956299 203.618134 375.892212
660.576294 261.908142 385.272217
665.836304 23.958637 349.922241
665.626343 141.608139 347.862244
660.886292 390.309143 378.642212
658.346313 335.468140 401.162231
656.126343 398.978119 417.342224
657.156311 344.829132 410.622253
663.456299 220.498138 363.072235
663.376343 295.368134 361.262207
662.346313 406.668121 366.122223
663.356323 56.868534 369.102234
659.196350 351.238129 393.682220
664.856323 116.829140 354.912231
661.186340 288.468140 379.482239
662.246338 215.638138 373.122223
659.806335 279.988129 391.012207
666.446350 -32.501362 346.692230
660.006348 309.108124 388.402222
664.016296 160.868134 360.432220
656.906311 322.138123 413.352234
656.936340 326.978119 412.952209
664.796326 163.708130 353.922241
664.776306 119.128136 355.482239
664.806335 256.708130 350.832214
658.446350 298.049133 401.592224
661.636292 239.799133 377.342224
658.106323 261.848145 405.502197
665.086304 -26.881361 357.632233
709.686340 -399.901855 403.292236
702.426331 -404.581879 392.232239
687.066345 -392.881866 347.352234
687.876343 -409.521881 347.052246
680.736328 -363.461853 343.602234
692.536316 -409.881866 351.112244
679.776306 -412.240875 339.822235
681.396301 -410.141876 341.362244
684.426331 -396.490875 344.822235
689.856323 -411.331879 361.692230
685.436340 -413.621857 345.112244
696.436340 -408.911865 369.662231
689.346313 -409.311859 398.142212
672.416321 -387.791870 309.082214
672.576294 -409.141876 328.622223
670.276306 -363.661865 333.432220
673.266296 -400.011871 302.232239
673.296326 -417.761871 321.012207
674.256348 -430.980865 312.492249
674.386292 -428.851868 307.172241
673.296326 -416.021881 319.072235
676.636292 -451.641876 278.680237
678.696350 364.148132 290.194214
685.456299 323.098145 303.032227
677.176331 370.059143 294.330231
681.816345 348.238129 289.734222
683.976318 337.588135 288.717224
671.216309 386.378143 324.712219
667.726318 398.708130 336.642212
672.356323 396.988129 289.980225
674.496338 380.309143 301.862244
672.156311 380.378143 327.132233
677.606323 361.289124 308.052246
686.796326 321.218140 292.500244
676.476318 362.338135 318.152222
669.986328 399.549133 310.422241
682.646301 339.319122 299.432220
674.086304 385.748138 294.894226
686.196350 16.538536 270.555237
680.956299 -226.141861 244.974228
681.456299 56.548641 248.966217
681.266296 18.428539 247.838226
680.676331 143.908127 245.894226
680.516296 -227.421860 242.961227
683.716309 268.039124 260.638245
684.156311 32.348438 261.246216
682.506348 233.868134 254.847229
688.326294 135.868134 281.068237
686.006348 56.328739 269.926208
682.736328 -26.221462 254.383224
681.626343 -244.980865 247.958221
680.756348 -134.141861 244.618225
686.786316 198.888138 274.337219
681.726318 -89.871361 249.327225
684.756348 101.829140 264.444214
680.106323 -228.740860 241.031219
684.236328 181.319138 262.488220
683.036316 219.779129 257.215210
680.036316 -57.161362 241.753235
681.466309 351.829132 250.741226
680.056335 -308.751862 240.365234
684.046326 158.588135 261.500244
681.496338 -102.271355 248.213226
680.026306 -310.571869 240.196228
686.206299 204.178131 271.731232
683.566345 -9.671412 258.272217
682.906311 58.158535 255.643219
682.576294 -11.581451 253.695221
685.996338 1.288539 269.560242
680.296326 73.718643 243.696228
685.786316 94.248138 269.128235
685.736328 73.528641 268.763245
680.816345 -220.071869 244.375229
687.846313 116.128136 278.753235
683.726318 229.838135 260.429230
681.646301 110.938141 250.175232
688.286316 179.718140 281.164246
685.756348 258.779144 269.957214
683.946350 -119.601860 259.393219
681.756348 266.138123 251.586227
684.996338 -37.601460 264.707214
688.656311 150.958130 282.705231
684.076294 74.498642 261.129211
687.486328 232.618134 277.792236
686.076294 209.418137 271.130249
687.446350 106.069145 276.852234
684.576294 48.158539 263.303223
679.156311 -412.551880 235.572632
680.586304 -95.541359 244.061218
682.056335 -132.721863 250.606232
681.526306 -108.041359 248.326233
682.306335 65.778641 252.930237
682.646301 80.398544 254.596222
682.096313 360.549133 253.732239
682.626343 215.858139 255.283234
682.886292 217.559128 256.503235
683.006348 196.418137 256.947235
684.796326 161.148132 264.975220
679.326294 -341.801880 236.776520
681.716309 41.668537 250.059235
679.456299 -193.571869 238.279236
681.166321 102.598145 247.889221
682.766296 64.728645 255.047226
688.136292 197.378128 280.545227
681.856323 346.299133 252.514221
684.076294 366.259125 267.864227
682.196350 359.348145 278.468231
671.256348 408.248138 279.858215
684.046326 359.948120 272.233215
674.446350 390.688141 281.673218
679.416321 383.418121 270.928223
685.486328 334.178131 285.139221
682.576294 -216.360870 255.555237
685.526306 -24.081451 277.142212
684.216309 -119.901855 261.770233
684.896301 -77.341461 265.733215
680.896301 -272.801880 272.784241
684.146301 -119.871857 263.816223
681.746338 -241.531860 265.529236
678.996338 -398.431854 257.726227
681.666321 -252.531860 261.588226
680.176331 -339.990875 256.158234
685.766296 -16.191433 274.679230
683.516296 -157.490860 260.899231
681.836304 -257.911865 253.560226
680.116333 -368.751862 241.715225
686.386292 17.598637 275.492249
679.596313 -369.661865 256.232239
678.526306 -432.901855 252.098236
678.146301 -448.391876 254.299225
679.196350 -410.751862 244.966217
683.496338 -133.691864 274.947235
681.416321 -264.541870 262.158234
683.526306 -162.271866 258.141235
677.866333 -448.971863 262.309235
680.486328 -334.031860 250.236237
679.466309 -391.221863 247.908234
683.166321 -182.471863 257.124237
687.026306 53.468639 277.128235
682.096313 -215.571869 269.910217
685.096313 -50.341461 274.990234
680.846313 -306.360870 255.502228
680.246338 -315.561859 267.570221
679.756348 -357.161865 258.650238
681.176331 -294.571869 252.346222
678.466309 -459.441864 238.984222
680.586304 -295.051880 269.270233
679.636292 -397.531860 239.494232
679.606323 -392.381866 243.280228
679.586304 -360.461853 261.693237
681.176331 -269.921844 266.160217
685.176331 -58.551460 268.053223
686.886292 43.478638 275.441223
679.926331 -380.691864 240.579224
688.666321 149.898132 283.390228
684.106323 -126.081856 261.331238
683.036316 324.598145 316.592224
686.926331 306.198120 309.782227
675.986328 355.269135 331.202209
682.296326 326.299133 319.412231
683.076294 319.988129 320.352234
688.006348 317.819122 278.144226
688.026306 269.668121 279.278229
689.606323 230.829132 286.250244
687.996338 322.138123 278.010223
689.496338 234.188141 285.737244
690.156311 297.838135 286.884216
685.256348 326.519135 267.302246
689.236328 288.418121 283.541229
686.056335 306.418121 270.819214
688.676331 291.309143 306.772217
689.356323 278.178131 299.882233
688.806335 273.388123 302.992249
689.326294 240.638123 294.175232
690.186340 268.608124 292.565247
673.586304 32.628536 332.642212
666.706299 168.118134 346.192230
667.486328 -30.441462 342.042236
679.516296 129.128128 324.022217
675.376343 197.799133 331.992249
676.366333 -91.901360 326.172241
680.346313 330.198120 325.502228
681.296326 272.908142 323.062225
676.786316 -69.041359 325.782227
672.686340 -98.411362 332.292236
673.306335 -179.221863 330.072235
674.086304 32.068737 331.802246
669.846313 210.208130 341.512207
673.196350 351.838135 337.872223
676.986328 104.598145 327.942230
674.116333 253.509125 334.912231
673.846313 -14.981349 331.522217
666.806335 345.858124 348.572235
671.626343 -93.981361 334.142212
674.036316 260.218140 335.142212
668.126343 -83.771355 340.192230
669.276306 -122.911858 337.692230
684.006348 185.178131 317.232239
686.416321 295.428131 314.752228
668.856323 -16.481350 339.932220
673.836304 134.958130 333.682220
673.136292 -171.121872 330.492249
679.036316 219.559128 326.122223
670.416321 -73.521362 336.472229
668.116333 -70.981361 340.382233
676.816345 35.458637 327.232239
667.986328 304.049133 345.992249
666.066345 188.928131 347.572235
673.446350 -54.261364 331.632233
670.136292 -159.051865 335.722229
667.856323 187.638138 344.542236
673.976318 -18.041410 331.262207
667.456299 388.769135 348.092224
677.026306 297.559143 330.642212
685.076294 233.759140 316.132233
683.126343 229.829132 319.362244
671.746338 238.348129 338.702209
670.066345 -104.751358 336.622223
676.666321 -62.901363 326.072235
673.146301 92.588142 334.252228
676.466309 225.539139 330.542236
