ply
format ascii 1.0
element vertex 1364
property float x
property float y
property float z
end_header
433.967804 1780.504395 -382.477356
434.039795 1780.664429 -382.601379
434.709808 1798.064453 -382.615356
452.357819 1777.974365 -374.937378
512.193848 1788.344360 -375.303375
487.015808 1794.454346 -374.389374
510.305817 1805.914429 -373.993378
469.439789 1788.504395 -374.493378
486.681793 1783.274414 -375.193359
434.799805 1787.634399 -373.909363
442.313812 1807.624390 -372.601379
442.221802 1794.164429 -373.575378
466.721802 1807.224365 -373.085358
445.233795 1786.384399 -374.195374
484.505798 1815.234375 -372.837372
551.179810 1765.664429 -371.299377
556.009827 1784.274414 -371.153381
537.711853 1783.384399 -373.605377
530.195862 1789.904419 -373.995361
537.083862 1792.364380 -373.159363
535.547852 1785.164429 -373.827362
219.137802 1813.634399 -262.109375
194.343811 1813.634399 -255.115387
219.677811 1813.634399 -249.589386
194.036804 1813.634399 -255.367371
189.855804 1813.634399 -254.803375
164.251801 1813.634399 -244.141388
184.597809 1813.634399 -253.531372
140.646805 1813.634399 -244.933380
217.589798 1813.634399 -270.447388
199.350800 1813.634399 -274.651367
171.641800 1813.634399 -275.681366
206.309799 1813.634399 -296.543365
165.596802 1813.634399 -301.665375
158.432800 1813.634399 -291.941376
199.821808 1813.634399 -299.011383
157.409805 1813.634399 -273.001373
140.083801 1813.634399 -282.123383
144.701797 1813.634399 -292.687378
205.479797 1813.634399 -195.899384
164.769806 1813.634399 -197.775391
209.025803 1813.634399 -203.177368
191.695801 1813.634399 -216.949371
155.697800 1813.634399 -199.427368
197.594803 1813.634399 -203.135376
168.712799 1813.634399 -218.495392
195.614807 1813.634399 -231.571381
188.169800 1813.634399 -219.561371
188.305801 1813.634399 -227.401367
139.166809 1813.634399 -200.763367
149.275803 1813.634399 -219.637390
160.428802 1796.574341 -190.657379
219.811798 1805.564453 -190.657379
167.919800 1810.494385 -190.657379
190.323807 1725.444336 -166.393372
214.883804 1725.444336 -167.291382
217.689804 1725.444336 -176.493378
206.995804 1725.444336 -160.487274
162.406799 1725.444336 -180.663376
174.279800 1725.444336 -171.717377
170.825806 1725.444336 -183.903381
182.569809 1725.444336 -185.743378
145.993805 1725.444336 -178.155380
146.949799 1725.444336 -158.673279
218.815811 1725.594360 -190.657379
183.626801 1748.214355 -190.657379
195.714798 1748.764404 -190.657379
188.333801 1751.054443 -190.657379
199.383804 1756.624390 -190.657379
211.811798 1734.044434 -190.657379
198.339798 1741.404419 -190.657379
200.837799 1758.854370 -190.657379
173.194809 1764.294434 -190.657379
154.890808 1789.724365 -190.657379
159.217804 1788.554443 -190.657379
169.722809 1767.114380 -190.657379
188.901810 1789.214355 -190.657379
163.972809 1763.434448 -190.657379
157.912811 1739.804443 -190.657379
143.963806 1776.114380 -190.657379
139.596802 1748.984375 -190.657379
150.708801 1746.234375 -190.657379
168.551804 1793.804443 -190.657379
193.978806 1882.954346 -319.927368
207.611801 1870.804443 -351.519379
219.233810 1869.864380 -353.831360
201.957809 1865.234375 -365.261383
189.382797 1869.764404 -354.099365
218.871811 1865.054443 -365.701355
168.211807 1880.244385 -328.253357
200.872803 1877.464355 -335.085358
187.804810 1878.034424 -333.693359
209.179810 1880.484375 -327.639374
154.013809 1878.304443 -333.019379
198.429810 1852.524414 -396.605377
168.966797 1873.924438 -343.835358
155.509811 1861.114380 -375.435364
174.733810 1864.884399 -366.123383
162.502808 1875.154419 -340.801361
178.469803 1864.104370 -368.061371
156.226807 1881.044434 -326.263367
160.242798 1853.274414 -394.765381
143.407806 1867.024414 -359.443359
144.692810 1858.934448 -378.003357
148.636810 1870.804443 -351.523376
146.370804 1878.004395 -333.763367
183.040802 1813.634399 -308.517365
182.474808 1813.634399 -311.587372
185.640808 1813.144409 -317.593384
150.323807 1812.354370 -319.151367
220.087799 1832.824341 -319.515381
202.002808 1825.884399 -319.515381
192.945801 1818.194336 -319.515381
175.987808 1827.524414 -319.515381
186.275803 1843.474365 -319.515381
193.330811 1818.084351 -319.515381
202.849808 1850.234375 -319.515381
177.144806 1818.594360 -319.515381
169.575806 1848.584351 -319.515381
187.331802 1859.684448 -319.515381
160.107803 1847.724365 -319.515381
159.365799 1867.084351 -319.515381
172.221802 1832.664429 -319.515381
170.998810 1863.404419 -319.515381
178.162811 1860.754395 -319.515381
171.642807 1863.604370 -319.515381
146.325806 1863.964355 -319.515381
138.738800 1827.984375 -319.515381
153.616806 1837.094360 -319.515381
152.799805 1872.404419 -319.515381
23.903212 1813.634399 -251.491364
62.740013 1813.634399 -263.705383
45.136612 1813.634399 -267.443390
7.381701 1813.634399 -253.159363
37.460613 1813.634399 -241.109375
64.002213 1813.634399 -261.125366
41.311012 1813.634399 -238.717377
72.397812 1813.634399 -251.819366
104.804810 1813.634399 -240.093384
103.890808 1813.634399 -238.895386
126.251808 1813.634399 -242.869385
101.473213 1813.634399 -259.753387
87.068214 1813.634399 -244.537384
109.953812 1813.634399 -266.961365
97.702209 1813.634399 -266.977386
73.528809 1813.634399 -234.701385
9.367441 1813.634399 -293.401367
22.273212 1813.634399 -290.623383
33.542812 1813.634399 -298.607391
24.158812 1813.634399 -288.495392
7.543821 1813.634399 -285.227386
33.351410 1813.634399 -274.843384
74.500412 1813.634399 -278.707367
23.791012 1813.634399 -273.561371
48.668613 1813.634399 -281.353363
53.404011 1813.634399 -274.979370
134.392807 1813.634399 -270.645386
95.727615 1813.634399 -278.473389
119.226814 1813.634399 -279.737366
82.249611 1813.634399 -281.711365
118.767815 1813.634399 -295.031372
86.468414 1813.634399 -277.519379
23.601812 1813.634399 -197.999390
73.172813 1813.634399 -195.655365
79.337212 1813.634399 -196.507385
64.684410 1813.634399 -229.583374
32.704212 1813.634399 -218.039368
39.525810 1813.634399 -230.107391
51.095013 1813.634399 -231.937378
42.376610 1813.634399 -206.953369
52.861813 1813.634399 -201.893372
77.487411 1813.634399 -198.865387
71.805809 1813.634399 -219.441376
29.985611 1813.634399 -202.063385
118.854813 1813.634399 -217.845367
99.233810 1813.634399 -208.203369
120.787811 1813.634399 -198.595367
137.790802 1813.634399 -209.869385
82.723610 1813.634399 -215.381378
90.175812 1813.634399 -229.723389
97.630013 1813.634399 -217.355377
85.773415 1813.634399 -206.965363
35.813610 1806.764404 -190.657379
3.886565 1805.074341 -190.657379
52.569012 1803.354370 -190.657379
16.561811 1796.794434 -190.657379
126.916809 1797.674438 -190.657379
134.578796 1801.464355 -190.657379
87.811615 1802.584351 -190.657379
115.193810 1807.454346 -190.657379
35.789013 1725.444336 -182.401367
40.863811 1725.444336 -190.349365
13.221480 1725.444336 -185.139374
7.566301 1725.444336 -179.431366
77.931412 1725.444336 -156.863281
64.097412 1725.444336 -164.967377
50.197811 1725.444336 -173.901367
76.108009 1725.444336 -175.581375
22.180611 1725.444336 -153.031174
133.852798 1725.444336 -181.751373
131.310806 1725.444336 -174.671387
124.641815 1725.444336 -172.457367
107.105812 1725.444336 -171.797379
94.617615 1725.444336 -181.501373
114.622810 1725.444336 -176.481384
20.038811 1725.744385 -190.657379
17.899410 1747.904419 -190.657379
20.762812 1772.294434 -190.657379
3.856627 1745.504395 -190.657379
2.874809 1768.554443 -190.657379
33.515812 1772.084351 -190.657379
39.134613 1780.194336 -190.657379
30.035011 1781.874390 -190.657379
68.272011 1791.204346 -190.657379
50.948013 1750.414429 -190.657379
58.685810 1755.904419 -190.657379
43.515213 1737.744385 -190.657379
57.880413 1767.384399 -190.657379
73.088608 1752.444336 -190.657379
75.404213 1762.494385 -190.657379
50.383213 1761.424438 -190.657379
68.710808 1751.504395 -190.657379
96.583809 1734.494385 -190.657379
137.293808 1768.344360 -190.657379
111.948814 1729.154419 -190.657379
100.100609 1732.754395 -190.657379
117.993813 1766.014404 -190.657379
87.342613 1732.344360 -190.657379
82.896011 1775.494385 -190.657379
84.823013 1745.174438 -190.657379
98.443413 1750.454346 -190.657379
89.657814 1779.154419 -190.657379
101.809410 1772.254395 -190.657379
87.338814 1771.564453 -190.657379
33.215809 1794.264404 -190.657379
133.196808 1794.414429 -190.657379
104.108810 1794.884399 -190.657379
34.101009 1882.974365 -319.853363
99.464409 1882.334351 -323.039368
60.476612 1853.944336 -371.413361
6.131241 1872.254395 -340.251373
4.649721 1863.244385 -355.577362
26.847811 1864.584351 -353.309357
40.621212 1860.684448 -359.947357
24.122412 1856.534424 -366.995361
6.629641 1870.374390 -343.453369
11.918820 1857.784424 -364.883362
31.025812 1871.634399 -341.311371
54.399811 1876.994385 -332.177368
38.026012 1873.084351 -338.827362
54.986813 1875.764404 -334.271362
48.386410 1870.194336 -343.755371
74.668411 1873.164429 -338.707367
62.916012 1879.334351 -328.199371
132.756805 1878.334351 -330.411377
82.546410 1852.184448 -375.171356
127.652809 1856.084351 -378.287384
121.599815 1856.294434 -376.241364
122.854813 1852.954346 -383.971375
128.309814 1865.224365 -358.253357
119.166809 1863.824341 -358.965363
121.206810 1860.824341 -366.129364
130.021805 1880.164429 -326.793365
106.070808 1878.294434 -329.977356
79.108414 1864.344360 -353.713379
90.219612 1880.834351 -325.651367
84.023811 1881.294434 -324.863373
91.875015 1875.284424 -335.085358
6.815841 1813.634399 -312.777374
64.302811 1813.634399 -314.663391
107.433815 1813.634399 -308.139374
101.693008 1813.634399 -311.383362
48.958611 1813.004395 -317.881378
16.760212 1867.414429 -319.515381
46.136013 1862.084351 -319.515381
65.359810 1873.214355 -319.515381
29.578411 1850.224365 -319.515381
30.191011 1856.294434 -319.515381
25.897211 1874.954346 -319.515381
13.481311 1867.334351 -319.515381
17.069511 1854.624390 -319.515381
13.385211 1817.374390 -319.515381
42.629013 1825.694336 -319.515381
50.503613 1829.744385 -319.515381
59.708210 1853.284424 -319.515381
53.572411 1829.104370 -319.515381
25.615011 1827.604370 -319.515381
53.657013 1827.014404 -319.515381
21.043411 1817.414429 -319.515381
74.063210 1874.174438 -319.515381
105.837814 1844.244385 -319.515381
87.002609 1815.114380 -319.515381
128.332809 1838.474365 -319.515381
109.951813 1820.484375 -319.515381
114.968811 1814.464355 -319.515381
137.492798 1829.304443 -319.515381
136.430801 1866.114380 -319.515381
81.040215 1846.854370 -319.515381
83.512611 1870.884399 -319.515381
114.800812 1881.914429 -319.515381
79.321808 1879.684448 -319.515381
113.294815 1871.794434 -319.515381
101.800613 1878.374390 -319.515381
87.701614 1868.084351 -319.515381
235.893799 1826.484375 -257.079376
229.999802 1821.114380 -250.467377
226.623810 1818.044434 -261.147369
238.005798 1828.414429 -238.093384
299.087799 1884.064453 -237.211365
278.359802 1865.184448 -239.643372
230.805801 1821.854370 -261.787384
283.585815 1869.944336 -258.897369
298.613800 1883.634399 -259.073364
311.705811 1895.564453 -267.265381
297.855804 1882.944336 -266.541382
307.617798 1891.844360 -248.827362
296.971802 1882.134399 -259.097382
294.341797 1879.744385 -244.417389
324.575806 1896.304443 -237.595367
321.281799 1896.304443 -264.531372
453.693817 1896.304443 -243.229370
505.979797 1896.304443 -236.843384
505.411804 1896.304443 -237.337372
361.383789 1896.304443 -251.639374
358.557800 1896.304443 -241.547363
341.029816 1896.304443 -242.599365
436.439789 1896.304443 -239.279388
341.307800 1896.304443 -264.895386
445.971802 1896.304443 -240.027374
406.689789 1896.304443 -265.845367
428.381805 1896.304443 -255.253387
440.451813 1896.304443 -253.315369
451.989807 1896.304443 -255.671387
460.893799 1896.304443 -254.753387
477.477814 1896.304443 -248.385376
373.513794 1896.304443 -268.773376
415.003815 1896.304443 -257.809387
492.573792 1896.304443 -241.431366
531.491821 1891.404419 -257.943390
546.951843 1887.064453 -238.359375
554.737854 1884.314453 -246.581390
559.699829 1881.824341 -249.679382
559.321838 1882.584351 -246.001373
562.049805 1853.924438 -242.633362
561.649841 1873.664429 -261.817383
561.963806 1850.064453 -242.019379
561.237854 1836.744385 -248.111389
561.129822 1855.754395 -261.951385
561.063843 1853.914429 -264.207367
560.893860 1822.454346 -249.581390
560.497864 1811.894409 -263.769379
563.021851 1807.044434 -239.711365
582.781860 1802.324341 -256.027374
571.765808 1806.194336 -239.721375
578.279846 1803.894409 -249.985382
569.165833 1806.344360 -269.487366
605.897827 1795.234375 -244.375366
579.831848 1803.714355 -236.311371
617.995850 1745.844360 -255.401367
619.613831 1733.684448 -238.763367
619.707825 1762.534424 -250.277374
613.237854 1704.604370 -271.823364
616.979858 1742.954346 -261.401367
618.605835 1721.824341 -240.925385
632.313843 1773.434448 -236.751373
627.445862 1770.864380 -241.863373
626.065857 1766.584351 -251.439362
628.257812 1764.274414 -256.453369
632.655823 1774.334351 -234.887390
653.313843 1777.064453 -238.987366
648.435852 1781.534424 -265.407379
651.953857 1799.164429 -247.051392
643.309814 1800.834351 -238.615387
628.195862 1797.384399 -242.619385
644.773865 1790.944336 -263.893372
646.265808 1795.104370 -254.955383
221.577805 1813.634399 -273.275391
229.927811 1821.054443 -274.121368
226.149811 1817.614380 -286.971375
258.465820 1847.054443 -287.549377
243.349808 1833.284424 -290.525391
272.057800 1859.444336 -272.389374
281.693817 1868.214355 -278.571381
299.013794 1884.004395 -273.763367
238.855804 1829.184448 -296.511383
252.701797 1839.044434 -299.213379
255.061798 1842.754395 -294.809387
302.331818 1874.524414 -301.299377
311.269806 1883.114380 -296.767365
307.643799 1887.434448 -281.211365
308.497803 1881.964355 -294.801392
287.259796 1867.774414 -291.695374
323.533813 1894.594360 -273.207367
329.551819 1891.434448 -280.257385
330.143799 1887.854370 -288.241364
337.229797 1880.064453 -305.615387
438.573792 1879.244385 -307.037384
418.975800 1888.084351 -287.743378
415.207794 1890.594360 -282.131378
364.825806 1892.134399 -278.701385
368.951813 1884.924438 -294.787384
357.865814 1884.074341 -296.669373
341.051819 1891.754395 -279.539368
376.103790 1888.254395 -287.347382
453.877808 1895.214355 -271.843384
374.647797 1886.654419 -290.925385
336.105804 1883.854370 -297.169373
400.815796 1886.524414 -291.211365
467.547791 1885.794434 -292.841370
509.809814 1892.894409 -276.997375
464.313812 1880.814453 -303.945374
414.109802 1883.114380 -298.809387
481.737793 1889.914429 -283.643372
460.153809 1881.714355 -301.937378
437.957794 1883.814453 -297.247375
496.947815 1885.524414 -293.449371
440.331818 1888.754395 -286.237366
442.003815 1882.164429 -300.935364
428.707794 1885.444336 -293.613373
490.035797 1881.474365 -302.473389
540.895813 1883.104370 -276.195374
537.823853 1881.904419 -281.583374
530.059814 1878.884399 -295.141388
531.345825 1878.534424 -294.845367
540.483826 1876.184448 -293.481384
560.701843 1873.714355 -277.179382
559.919861 1861.164429 -285.909363
560.803833 1864.774414 -274.307373
560.331848 1831.204346 -274.475372
559.697815 1823.774414 -289.719391
559.537842 1838.224365 -290.277374
560.117859 1815.714355 -274.923370
566.105835 1806.794434 -270.379364
568.177856 1807.004395 -274.753387
575.043823 1805.864380 -289.075378
578.725830 1804.944336 -292.905365
602.143860 1797.504395 -296.669373
624.259827 1784.154419 -300.263367
620.015808 1792.774414 -285.483368
627.663818 1790.994385 -279.971375
630.919861 1783.294434 -293.753387
642.641846 1784.904419 -277.753387
613.137817 1711.024414 -273.317383
610.401855 1719.184448 -282.267365
605.687805 1727.204346 -296.683380
612.079834 1704.454346 -275.171387
608.291809 1716.594360 -287.695374
618.617859 1757.204346 -273.231384
615.189819 1754.084351 -280.873383
644.101807 1754.974365 -277.165375
646.837830 1769.634399 -272.117371
641.613831 1772.664429 -294.531372
642.879822 1758.634399 -289.919373
596.409851 1846.824341 -300.351379
562.129822 1836.314453 -300.309387
577.929810 1843.594360 -300.323364
588.179810 1842.974365 -300.343384
611.831848 1806.864380 -301.089386
616.267822 1802.114380 -301.123383
580.947815 1807.274414 -300.731384
601.963806 1810.344360 -301.077362
599.523865 1809.974365 -301.037384
599.379822 1812.914429 -300.981384
636.119812 1779.904419 -301.323364
627.899841 1842.494385 -235.735382
634.501831 1812.184448 -236.161377
597.523865 1835.424438 -235.437378
601.859863 1834.314453 -235.503387
613.895813 1851.254395 -235.463379
586.571838 1818.324341 -235.495392
613.349854 1839.004395 -235.595367
629.469849 1838.664429 -235.799377
588.623840 1803.594360 -235.771362
626.395813 1797.584351 -236.457367
631.183838 1841.404419 -235.789368
570.381836 1816.674438 -235.331390
592.863831 1864.394409 -235.369385
587.869812 1869.864380 -235.361389
571.899841 1836.034424 -235.333374
580.889832 1848.934448 -235.349365
586.217834 1853.424438 -235.359375
583.461853 1846.854370 -235.353363
584.757812 1828.944336 -235.359375
235.649811 1826.264404 -195.295380
253.023804 1842.094360 -197.477386
510.845795 1896.304443 -190.771362
384.737793 1896.304443 -192.765381
366.117798 1896.304443 -197.379364
457.631805 1896.304443 -194.259369
594.519836 1876.984375 -191.663391
600.915833 1875.194336 -193.201385
644.959839 1832.334351 -192.041382
657.335815 1806.024414 -193.551392
634.159851 1764.414429 -319.207367
635.621826 1748.654419 -318.239380
629.665833 1749.564453 -334.385376
640.291809 1757.744385 -301.471375
639.139832 1763.744385 -304.691376
656.133850 1781.404419 -224.383362
656.147827 1783.104370 -224.199371
655.765808 1797.284424 -227.289368
225.561798 1817.074341 -207.697388
225.225800 1816.764404 -218.897369
282.611816 1869.054443 -210.391388
260.005798 1848.454346 -199.161377
236.363800 1826.914429 -204.533386
244.373810 1834.214355 -215.305389
253.277802 1842.324341 -202.951385
298.861816 1883.864380 -226.183380
306.185791 1890.534424 -227.481384
280.839813 1867.444336 -221.737366
278.379791 1865.194336 -227.381378
288.911804 1874.794434 -213.519379
244.623810 1834.444336 -229.653381
287.645813 1873.644409 -218.439362
321.327789 1896.304443 -206.997375
321.899811 1896.304443 -226.753387
424.993805 1896.304443 -200.173370
510.979797 1896.304443 -198.911377
420.139801 1896.304443 -211.133362
447.247803 1896.304443 -208.013367
350.873810 1896.304443 -214.709381
350.735809 1896.304443 -219.935364
342.855804 1896.304443 -230.355377
336.665802 1896.304443 -214.515381
338.399811 1896.304443 -203.265381
445.671814 1896.304443 -204.889374
387.731812 1896.304443 -228.271362
446.051819 1896.304443 -224.509369
508.671814 1896.304443 -215.983368
436.765808 1896.304443 -217.309387
391.279816 1896.304443 -225.347382
448.845795 1896.304443 -222.869385
508.577789 1896.304443 -233.745392
430.563812 1896.304443 -226.821381
437.473816 1896.304443 -228.771362
509.975800 1896.304443 -227.777374
455.675812 1896.304443 -216.931366
620.245850 1720.474365 -228.333374
625.429810 1763.184448 -209.869385
627.737854 1769.064453 -195.949371
628.933838 1784.464355 -193.941376
627.753845 1769.474365 -195.999390
621.255859 1745.224365 -231.959381
625.309814 1737.804443 -200.019379
622.197815 1740.174438 -223.131378
622.169861 1747.624390 -226.477386
655.347839 1789.964355 -203.163391
652.741821 1788.804443 -205.169373
629.905823 1781.204346 -219.047363
633.635864 1785.534424 -209.357391
660.451843 1792.974365 -197.323364
629.451843 1849.814453 -223.605377
627.607849 1853.654419 -222.709381
655.559814 1813.004395 -201.109375
625.993835 1864.604370 -206.635376
622.911804 1863.904419 -219.445374
642.829834 1829.504395 -215.199371
651.585815 1811.524414 -226.643372
645.753845 1821.224365 -226.663391
640.973816 1829.434448 -225.825378
580.475830 1878.804443 -224.325378
596.071838 1875.144409 -204.055389
611.403809 1866.644409 -231.603363
617.473816 1869.564453 -207.653381
613.671814 1868.244385 -220.241364
602.159851 1869.304443 -234.403381
527.547852 1892.714355 -201.797363
573.117859 1880.924438 -201.091370
525.575806 1893.224365 -215.527374
548.207825 1887.364380 -212.653381
551.219849 1886.584351 -204.071381
580.217834 1878.854370 -212.187378
533.443848 1891.134399 -229.011383
556.679810 1884.994385 -221.841370
584.221863 1818.094360 -342.909363
589.029846 1826.924438 -333.141357
523.665833 1835.384399 -349.411377
531.275818 1842.414429 -340.759369
531.109863 1842.484375 -340.759369
553.177856 1824.784424 -348.311371
551.545837 1830.724365 -343.781372
558.723816 1834.634399 -337.809357
580.387817 1842.024414 -322.595367
575.559814 1816.134399 -347.997375
567.267822 1830.014404 -338.645355
573.513855 1836.334351 -330.461365
580.095825 1820.484375 -342.261383
534.233826 1865.404419 -319.195374
540.269836 1864.114380 -317.153381
595.059814 1850.714355 -304.937378
519.003845 1876.044434 -309.973389
562.009827 1865.084351 -302.771362
534.079834 1793.664429 -186.199371
534.503845 1794.754395 -162.365387
529.059814 1780.774414 -185.733368
514.625793 1743.704346 -176.769379
514.083801 1742.314453 -154.433273
532.055847 1788.464355 -165.489380
527.029846 1775.554443 -162.987366
516.763855 1749.194336 -155.271271
542.557861 1805.684448 -191.397369
536.655823 1819.744385 -191.163391
522.481812 1789.494385 -191.085388
523.509827 1818.844360 -191.085388
563.801819 1821.984375 -191.323364
516.305847 1752.854370 -191.055389
527.905823 1813.394409 -191.111389
518.765808 1826.604370 -191.055389
545.657837 1829.024414 -191.213379
531.869812 1789.264404 -191.313385
543.845825 1793.844360 -191.247375
519.873840 1836.894409 -191.059387
538.369812 1833.444336 -191.169373
581.463806 1842.554443 -191.341370
532.191833 1848.294434 -191.067383
538.313843 1862.004395 -191.009369
550.885864 1853.944336 -191.123383
596.781860 1867.264404 -191.265381
558.755859 1872.364380 -191.043365
563.849854 1856.264404 -191.173370
533.603821 1846.414429 -191.085388
604.421814 1870.374390 -191.283386
587.417847 1849.424438 -191.329376
575.201843 1851.604370 -191.257385
582.267822 1849.484375 -191.303375
555.645813 1842.414429 -191.217377
626.383850 1743.064453 -309.017365
602.365845 1708.394409 -303.665375
602.531860 1710.554443 -303.529388
601.287842 1727.274414 -311.689362
605.469849 1740.344360 -313.739380
598.923828 1692.724365 -312.817383
614.967834 1731.714355 -335.713379
605.547852 1738.884399 -317.339355
619.755859 1736.994385 -323.501373
594.645813 1687.324341 -332.683380
593.115845 1696.574341 -343.473358
598.385864 1691.054443 -314.441376
598.357849 1725.034424 -325.045380
223.963806 1727.414429 -190.665375
253.817810 1734.774414 -190.783386
238.431808 1795.174438 -190.723389
306.935791 1834.014404 -190.991364
251.643799 1790.334351 -190.775391
279.919800 1803.504395 -190.885376
260.735809 1781.944336 -190.809387
268.231812 1787.454346 -190.839386
257.395813 1794.054443 -190.797363
259.913818 1808.334351 -190.807373
246.051804 1766.434448 -190.753387
302.983795 1804.514404 -190.975372
273.063812 1779.214355 -190.859375
307.605804 1818.234375 -190.993378
251.637802 1762.884399 -190.775391
295.599792 1806.834351 -190.947388
303.201813 1747.594360 -190.977386
284.811798 1773.244385 -190.905365
237.569809 1745.704346 -190.719391
307.797791 1800.834351 -190.995392
279.523804 1759.954346 -190.883362
303.217804 1766.754395 -190.977386
295.621796 1776.484375 -190.947388
299.183807 1789.964355 -190.961365
252.051804 1810.104370 -190.775391
288.071808 1828.194336 -190.917389
246.629807 1820.964355 -190.749390
309.561798 1882.674438 -190.731384
267.015808 1849.674438 -190.687378
287.425812 1865.714355 -190.707367
244.023804 1822.414429 -190.723389
261.177795 1841.194336 -190.705383
284.097809 1847.104370 -190.805389
306.451813 1878.534424 -190.739380
263.987793 1824.514404 -190.823364
267.327789 1824.124390 -190.835388
222.213806 1812.604370 -190.657379
220.299805 1737.014404 -190.657379
624.413818 1763.174438 -336.277374
625.041809 1760.774414 -337.505371
633.037842 1768.624390 -317.471375
598.525818 1795.974365 -347.143372
614.275818 1805.634399 -317.361359
613.103821 1810.194336 -315.777374
599.539856 1812.424438 -333.121368
608.121826 1799.694336 -330.125366
625.991821 1778.184448 -320.371368
600.643860 1814.094360 -330.399384
625.485840 1779.244385 -320.331360
516.493835 1870.724365 -321.209381
516.201843 1867.774414 -324.045380
492.167816 1871.984375 -319.623383
461.625793 1837.384399 -353.203369
511.347809 1863.934448 -327.981384
474.433807 1847.544434 -343.863373
480.137817 1857.304443 -335.219360
468.451813 1846.734375 -344.855377
493.967804 1856.884399 -334.891357
512.207825 1852.074341 -338.105377
429.637817 1838.414429 -353.913361
413.523804 1855.154419 -337.779358
433.327789 1846.744385 -346.133362
371.423798 1861.584351 -331.425354
396.473816 1852.664429 -340.277374
360.911804 1862.184448 -330.849365
441.871796 1859.754395 -333.149384
394.593811 1862.464355 -330.515381
380.167816 1855.384399 -337.595367
384.815796 1856.404419 -336.569366
423.093811 1860.814453 -332.117371
342.403809 1869.384399 -323.693359
412.221802 1866.844360 -326.125366
420.129791 1845.874390 -347.015381
477.693817 1862.414429 -330.443359
416.869812 1839.024414 -353.851379
408.333801 1837.514404 -358.963379
352.185791 1864.374390 -329.061371
359.439789 1857.274414 -341.829376
348.283813 1861.294434 -336.273376
357.999817 1861.774414 -342.495361
340.691803 1864.824341 -333.539368
367.687805 1855.234375 -347.263367
388.195801 1859.004395 -358.293365
344.849792 1871.714355 -336.203369
266.593811 1882.584351 -321.567383
276.303802 1873.114380 -343.015381
281.361816 1852.314453 -388.713379
261.401794 1878.334351 -331.639374
250.857803 1879.904419 -328.251373
247.673798 1875.064453 -338.915375
269.767792 1870.224365 -349.409363
282.253815 1867.764404 -354.745361
250.161804 1868.844360 -352.569366
248.585800 1855.324341 -385.863373
271.601807 1853.774414 -386.393372
243.033798 1867.284424 -357.173370
225.119797 1860.294434 -376.959381
236.005798 1857.684448 -381.843384
234.211807 1859.704346 -377.117371
257.721802 1857.224365 -379.881378
251.311798 1861.014404 -371.451355
249.457809 1833.564453 -309.845367
291.627808 1863.934448 -309.257385
273.875793 1848.914429 -315.251373
269.783813 1845.544434 -316.383362
621.065857 1808.434448 -302.883362
627.983826 1792.324341 -305.451385
633.569824 1781.374390 -305.311371
370.867798 1874.644409 -314.975372
416.545807 1876.584351 -311.629364
348.985809 1874.544434 -315.147369
483.895813 1875.964355 -312.693390
492.491791 1875.954346 -312.703369
482.083801 1877.674438 -309.747375
330.367798 1873.574341 -316.815369
334.835815 1743.154419 -169.579376
365.907806 1743.154419 -183.267380
437.593811 1743.154419 -178.113373
335.665802 1743.154419 -159.903275
341.489807 1743.154419 -188.505371
367.237793 1743.154419 -161.303375
334.503815 1743.154419 -153.679169
432.167816 1743.154419 -190.733368
473.985809 1743.154419 -183.361374
443.869812 1743.154419 -184.801376
455.435791 1743.154419 -187.865387
462.713806 1743.154419 -160.135178
452.263794 1743.154419 -174.795380
357.765808 1743.154419 -154.223267
460.087799 1743.154419 -151.719269
407.283813 1743.154419 -157.265274
394.609802 1743.154419 -155.001282
490.103790 1743.154419 -168.015381
396.291809 1743.154419 -154.955276
383.753815 1743.154419 -159.319183
498.307800 1743.154419 -179.027374
448.399811 1743.154419 -155.723267
316.703796 1743.154419 -157.071274
315.685791 1743.154419 -154.767273
323.117798 1743.154419 -154.603180
387.035797 1746.464355 -191.013367
471.317810 1746.734375 -191.013367
463.265808 1745.974365 -191.013367
331.877808 1745.654419 -191.013367
480.023804 1827.734375 -191.013367
389.379791 1827.594360 -191.013367
414.481812 1810.034424 -191.013367
466.429810 1825.384399 -191.013367
385.459808 1814.454346 -191.013367
376.943817 1812.604370 -191.013367
465.269806 1817.564453 -191.013367
402.637817 1813.504395 -191.013367
374.069794 1823.534424 -191.013367
340.939789 1755.484375 -191.013367
421.843811 1793.614380 -191.013367
380.329803 1816.934448 -191.013367
357.065796 1769.794434 -191.013367
337.933807 1770.334351 -191.013367
367.369812 1799.684448 -191.013367
407.877808 1805.224365 -191.013367
422.383789 1811.654419 -191.013367
360.167816 1806.604370 -191.013367
388.159790 1814.394409 -191.013367
492.581818 1828.464355 -191.013367
375.515808 1786.344360 -191.013367
355.217804 1766.704346 -191.013367
381.821808 1776.454346 -191.013367
342.633789 1825.404419 -191.013367
441.647797 1837.324341 -191.013367
357.985809 1831.034424 -191.013367
352.109802 1826.684448 -191.013367
377.087799 1768.944336 -191.013367
388.587799 1757.674438 -191.013367
486.365814 1749.974365 -191.013367
392.261810 1772.684448 -191.013367
399.301819 1776.074341 -191.013367
363.079803 1755.304443 -191.013367
499.021790 1771.944336 -191.013367
468.323792 1749.364380 -191.013367
483.465790 1810.934448 -191.013367
481.089813 1803.284424 -191.013367
482.027802 1792.054443 -191.013367
383.395813 1760.454346 -191.013367
416.619812 1750.714355 -191.013367
487.853790 1801.854370 -191.013367
501.617798 1816.904419 -191.013367
477.641815 1770.214355 -191.013367
472.157806 1776.324341 -191.013367
415.315796 1750.394409 -191.013367
486.143799 1788.374390 -191.013367
486.993805 1773.794434 -191.013367
488.985809 1797.384399 -191.013367
445.107819 1770.614380 -191.013367
437.075806 1753.524414 -191.013367
510.773804 1829.574341 -191.013367
418.623810 1765.574341 -191.013367
509.751801 1831.494385 -191.013367
489.815796 1825.364380 -191.013367
324.799805 1799.304443 -191.013367
316.813812 1796.764404 -191.013367
319.059814 1797.764404 -191.013367
323.395813 1775.994385 -191.013367
327.325806 1753.714355 -191.013367
317.005798 1753.434448 -191.013367
419.225800 1840.074341 -191.013367
493.917816 1840.224365 -191.013367
351.269806 1862.464355 -190.879364
356.481812 1850.454346 -190.955383
340.887817 1891.724365 -190.689362
355.197815 1862.314453 -190.879364
369.463806 1889.844360 -190.701385
367.637817 1880.944336 -190.759369
350.999817 1867.614380 -190.845367
382.141815 1867.744385 -190.845367
409.367798 1879.314453 -190.769379
399.495819 1888.444336 -190.711365
339.763794 1844.834351 -190.993378
392.361816 1879.664429 -190.767365
459.811798 1891.934448 -190.689362
417.147797 1888.054443 -190.713379
458.893799 1892.444336 -190.685364
507.727814 1883.064453 -190.745392
485.629791 1848.214355 -190.971375
444.731812 1853.294434 -190.937378
498.847809 1867.324341 -190.847382
502.435791 1859.334351 -190.899384
493.453796 1850.474365 -190.955383
457.191803 1864.714355 -190.863373
447.527802 1857.064453 -190.913391
427.211792 1849.784424 -190.961365
425.123810 1842.024414 -191.011383
432.935791 1869.204346 -190.835388
413.909790 1862.434448 -190.879364
501.709808 1889.584351 -190.703369
485.555817 1860.034424 -190.893372
435.319794 1848.444336 -190.969391
365.381805 1845.374390 -190.989380
322.361816 1864.904419 -190.863373
320.069794 1878.574341 -190.775391
333.895813 1872.884399 -190.811371
385.131805 1895.464355 -190.663391
445.533813 1894.434448 -190.673370
329.537811 1895.574341 -190.663391
374.767792 1872.964355 -317.875366
492.257812 1872.714355 -318.317383
289.915802 1881.214355 -319.515381
270.211792 1852.894409 -319.515381
229.313797 1823.664429 -319.515381
264.343811 1864.224365 -319.515381
245.955811 1847.274414 -319.515381
290.035797 1876.694336 -319.515381
281.907806 1879.034424 -319.515381
231.665802 1834.454346 -319.515381
287.503815 1871.014404 -319.515381
254.027802 1861.274414 -319.515381
242.791809 1829.824341 -319.515381
259.873810 1840.274414 -319.083374
251.553802 1833.124390 -317.039368
614.471863 1812.234375 -311.907379
312.875793 1887.514404 -190.717377
312.659790 1788.514404 -191.013367
514.353821 1770.324341 -191.037384
547.525818 1798.894409 -191.489380
578.939819 1774.144409 -191.877380
569.233826 1816.654419 -191.443390
605.003845 1771.004395 -192.043365
600.981812 1764.564453 -192.079376
586.459839 1790.934448 -191.765381
563.221863 1803.564453 -191.529388
552.063843 1804.954346 -191.457367
611.913818 1790.524414 -192.115387
612.243835 1784.094360 -192.129364
621.171814 1791.164429 -192.293365
596.763855 1806.184448 -191.803375
624.739807 1769.504395 -192.387390
559.337830 1784.634399 -191.671387
590.787842 1759.234375 -192.043365
552.265808 1786.514404 -167.217377
579.243835 1767.204346 -177.373383
545.081848 1791.654419 -175.261383
581.259827 1765.764404 -173.299377
563.569824 1778.424438 -186.101379
541.339844 1794.334351 -181.609375
544.075806 1792.374390 -186.847382
581.083862 1765.884399 -169.971375
620.723816 1737.514404 -170.049377
623.165833 1735.764404 -163.199371
616.775818 1740.344360 -186.913376
596.247864 1755.034424 -168.033386
624.555847 1734.774414 -173.147369
625.531860 1734.074341 -163.393372
517.779846 1856.844360 -190.939362
652.519836 1796.264404 -192.415375
600.567810 1817.484375 -191.761383
623.295837 1830.044434 -191.783386
631.251831 1823.544434 -191.917389
597.987854 1821.214355 -191.661377
623.889832 1854.954346 -191.527374
621.479858 1844.304443 -191.617371
630.481812 1821.134399 -191.937378
610.441833 1845.844360 -191.509369
-564.496155 1752.444336 -369.065369
-567.444153 1768.964355 -369.653381
-577.870178 1760.134399 -368.809357
-96.624786 1765.624390 -423.361359
-126.383186 1737.234375 -425.419373
-125.039192 1716.014404 -426.955383
-116.343185 1696.444336 -428.373383
-102.950188 1728.124390 -426.079376
-127.343193 1720.914429 -426.601379
-123.036186 1695.474365 -428.443359
-102.720192 1739.174438 -425.279358
-87.781387 1746.334351 -424.759369
-94.661987 1755.104370 -424.123383
-89.869987 1738.334351 -425.339355
-99.974190 1734.514404 -425.615356
-89.196587 1731.594360 -425.827362
-87.626991 1757.164429 -423.975372
-172.544189 1791.844360 -423.469360
-177.274200 1792.774414 -423.401367
-182.162201 1745.314453 -426.841370
-158.183197 1726.984375 -428.167358
-165.201202 1734.974365 -427.589355
-192.578201 1755.314453 -426.115356
-211.070190 1742.124390 -427.071381
-183.740189 1727.194336 -428.153381
-207.498199 1748.654419 -426.599365
-188.196198 1769.934448 -425.057373
-161.805191 1765.604370 -425.369354
-195.756195 1789.834351 -423.615356
-193.482193 1782.694336 -424.133362
-150.173203 1727.864380 -428.103363
-196.556198 1785.974365 -423.895355
-155.223190 1777.804443 -424.487366
-413.876190 1791.444336 -394.691376
-418.378204 1761.094360 -396.231384
-415.662201 1733.984375 -398.593384
-368.904205 1729.874390 -405.725372
-403.796204 1778.394409 -397.109375
-380.276184 1769.694336 -401.179382
-401.194183 1759.614380 -398.851379
-354.642181 1725.254395 -408.143372
-429.246185 1754.764404 -395.103363
-322.050201 1727.674438 -412.731384
-404.418182 1730.854370 -400.463379
-393.952209 1761.364380 -399.783356
-427.262207 1777.914429 -393.715363
-427.944183 1730.684448 -397.037384
-418.604187 1732.244385 -398.289368
-406.324188 1748.514404 -398.905365
-373.618195 1732.334351 -404.857361
-329.376190 1748.554443 -410.149384
-368.616211 1759.854370 -403.595367
-357.334198 1744.214355 -406.377380
-363.990204 1775.634399 -403.127380
-276.384186 1789.854370 -414.901367
-267.344208 1787.804443 -416.371368
-377.374207 1783.944336 -400.569366
-357.056183 1767.034424 -404.765381
-318.434204 1746.104370 -411.925354
-276.764191 1754.334351 -417.419373
-347.714203 1789.304443 -404.515381
-301.406189 1782.314453 -411.791382
-307.120209 1754.754395 -412.953369
-301.488190 1784.204346 -411.641357
-289.590210 1746.284424 -416.127380
-379.164185 1787.014404 -400.085358
-284.786194 1780.964355 -414.317383
-384.882202 1787.774414 -399.195374
-367.426208 1776.974365 -402.529358
-275.264191 1759.934448 -417.233368
-301.586182 1775.594360 -412.251373
-425.734192 1775.684448 -376.683380
-425.898193 1722.984375 -380.815369
-428.186188 1734.764404 -384.313354
-426.366211 1718.804443 -382.007355
-433.252197 1712.884399 -395.529358
-433.188202 1753.044434 -392.499359
-495.608185 1776.254395 -375.963379
-471.378204 1741.854370 -378.003357
-443.224182 1717.144409 -379.269379
-489.704193 1709.584351 -380.683380
-480.020203 1724.054443 -379.455383
-462.436188 1710.104370 -380.137360
-457.386200 1719.824341 -379.339355
-495.398193 1718.314453 -380.157379
-502.132202 1735.724365 -379.021362
-479.702209 1710.754395 -380.411377
-447.194183 1709.294434 -379.911377
-497.438202 1769.234375 -376.507355
-446.322205 1740.584351 -377.627380
-439.368195 1748.024414 -376.959381
-452.934204 1731.734375 -378.393372
-446.376190 1750.584351 -376.903381
-481.934204 1758.284424 -377.009369
-431.028198 1756.034424 -376.221375
-473.154205 1748.084351 -377.585358
-484.082184 1768.004395 -376.345367
-459.252197 1753.394409 -376.941376
-509.296173 1770.064453 -376.659363
-536.476135 1762.894409 -372.575378
-529.012146 1709.074341 -376.197357
-538.846191 1723.804443 -373.493378
-547.000183 1737.614380 -371.297363
-527.250183 1712.414429 -376.845367
-540.658142 1725.594360 -372.971375
-522.600159 1742.304443 -376.677368
-522.354187 1721.964355 -378.201355
-520.408142 1746.254395 -376.827362
-522.450195 1727.734375 -377.763367
-557.306152 1731.504395 -368.699371
-556.762146 1734.104370 -368.977356
-103.441185 1779.044434 -422.533356
-122.344185 1782.244385 -422.335358
-116.401192 1781.854370 -422.359375
-102.599190 1777.694336 -422.615356
-107.668190 1787.624390 -422.007355
-120.068192 1800.014404 -421.255371
-95.312790 1791.794434 -421.777374
-105.915192 1792.784424 -421.703369
-202.458191 1795.854370 -423.177368
-171.998199 1803.124390 -422.651367
-177.942200 1800.434448 -422.845367
-209.864197 1825.114380 -421.057373
-171.850189 1817.264404 -421.625366
-169.820190 1823.894409 -421.145355
-158.671204 1814.614380 -421.819366
-152.727203 1815.164429 -421.779358
-234.832199 1802.564453 -420.053375
-249.744202 1808.774414 -417.423370
-255.922211 1795.444336 -417.485382
-236.584198 1823.274414 -418.295380
-241.412201 1817.214355 -418.029358
-232.802200 1831.454346 -418.255371
-427.938202 1801.714355 -378.987366
-429.540192 1804.444336 -381.837372
-441.614197 1784.704346 -374.343384
-480.802185 1780.524414 -375.377380
-505.390198 1807.954346 -373.847382
-490.340210 1790.224365 -374.851379
-472.588196 1784.954346 -374.903381
-506.202209 1814.984375 -373.353363
-433.550201 1788.244385 -373.935364
-480.456207 1812.114380 -373.081360
-483.132202 1807.684448 -373.451355
-442.318207 1815.884399 -372.095367
-462.232208 1796.014404 -373.907379
-510.582184 1806.874390 -373.975372
-538.314148 1786.794434 -372.939362
-524.144165 1772.414429 -374.463379
-516.874146 1779.814453 -375.519379
-541.948181 1790.104370 -372.381378
-555.646179 1776.294434 -370.681366
-197.936203 1813.634399 -251.275391
-205.994202 1813.634399 -237.005371
-204.238190 1813.634399 -257.609375
-192.860199 1813.634399 -261.109375
-177.128189 1813.634399 -267.435364
-195.106201 1813.634399 -249.547363
-197.918198 1813.634399 -305.839386
-209.264191 1813.634399 -283.059387
-213.828201 1813.634399 -270.589386
-213.036194 1813.634399 -281.497375
-194.693192 1813.634399 -300.515381
-169.854202 1813.634399 -304.149384
-191.312195 1813.634399 -301.349365
-183.742203 1813.634399 -287.103363
-204.174194 1813.634399 -193.481384
-153.063202 1813.634399 -193.501373
-198.330200 1813.634399 -201.539368
-196.918198 1813.634399 -204.535370
-164.100189 1813.634399 -205.129364
-209.880203 1813.634399 -217.997375
-198.392197 1813.634399 -230.183380
-165.691193 1813.634399 -212.773376
-209.712189 1798.394409 -190.657379
-202.892197 1806.874390 -190.657379
-182.626190 1806.694336 -190.657379
-172.415192 1808.024414 -190.657379
-202.472198 1725.444336 -183.331375
-175.752197 1725.444336 -163.493378
-210.458191 1725.444336 -178.083374
-212.588196 1725.444336 -182.521378
-153.658203 1725.444336 -189.687378
-159.789200 1725.444336 -182.483368
-163.868195 1725.444336 -169.407379
-172.314194 1725.444336 -166.299377
-182.643188 1727.844360 -190.657379
-173.328201 1731.814453 -190.657379
-203.408203 1750.414429 -190.657379
-193.668198 1747.704346 -190.657379
-202.264191 1728.784424 -190.657379
-213.848190 1736.254395 -190.657379
-187.057190 1761.154419 -190.657379
-213.306198 1785.184448 -190.657379
-157.126190 1741.224365 -190.657379
-181.644196 1783.634399 -190.657379
-151.879196 1777.884399 -190.657379
-198.378189 1776.664429 -190.657379
-162.938202 1777.004395 -190.657379
-167.322189 1760.474365 -190.657379
-170.671204 1774.894409 -190.657379
-190.322189 1793.334351 -190.657379
-188.677200 1882.934448 -320.059357
-149.484192 1882.434448 -322.555359
-209.198196 1882.184448 -323.467377
-171.794189 1871.874390 -348.875366
-207.928192 1881.854370 -324.261383
-199.386200 1862.964355 -370.855377
-212.022202 1857.024414 -385.515381
-202.344193 1880.704346 -327.109375
-206.634201 1857.654419 -383.969360
-192.096191 1866.094360 -363.153381
-196.663193 1869.564453 -354.579376
-173.601196 1870.594360 -352.051361
-155.606201 1855.274414 -389.839355
-181.640198 1856.344360 -387.191376
-157.366196 1858.294434 -382.375366
-179.055191 1855.134399 -390.177368
-189.985199 1852.734375 -396.093384
-176.135193 1860.784424 -376.229370
-173.137192 1864.064453 -368.145355
-168.560196 1872.234375 -347.999359
-186.562195 1813.634399 -308.937378
-154.649200 1813.634399 -315.929382
-205.974197 1820.834351 -319.515381
-213.036194 1840.084351 -319.515381
-194.257202 1821.104370 -319.515381
-182.875198 1846.124390 -319.515381
-173.800201 1838.234375 -319.515381
-200.328201 1859.724365 -319.515381
-195.826202 1844.334351 -319.515381
-164.500198 1849.054443 -319.515381
-173.311203 1855.104370 -319.515381
-150.771194 1843.984375 -319.515381
-198.542191 1874.124390 -319.515381
-169.689194 1880.464355 -319.515381
-168.792191 1850.814453 -319.515381
-174.826202 1867.544434 -319.515381
-194.053192 1870.394409 -319.515381
-7.443689 1813.634399 -243.995392
-35.187588 1813.634399 -268.927368
-45.304390 1813.634399 -261.371368
-14.349189 1813.634399 -252.755371
-13.289889 1813.634399 -256.553375
-35.204987 1813.634399 -236.863373
-28.213188 1813.634399 -240.937378
-66.313988 1813.634399 -253.721375
-12.700690 1813.634399 -242.871368
-121.925186 1813.634399 -229.699371
-114.460190 1813.634399 -235.645386
-100.677185 1813.634399 -240.081390
-105.745186 1813.634399 -268.659363
-78.973785 1813.634399 -255.199371
-79.696388 1813.634399 -247.253387
-33.108387 1813.634399 -305.661377
-7.826690 1813.634399 -284.605377
-19.938589 1813.634399 -296.825378
-4.358999 1813.634399 -273.683380
-51.084389 1813.634399 -302.057373
-17.755589 1813.634399 -275.809387
-62.277390 1813.634399 -271.033386
-70.693787 1813.634399 -302.965363
-55.066788 1813.634399 -273.673370
-122.982185 1813.634399 -295.603363
-117.564186 1813.634399 -286.289368
-88.745186 1813.634399 -276.637390
-79.797592 1813.634399 -282.829376
-119.604187 1813.634399 -304.385376
-97.144188 1813.634399 -300.619385
-14.081189 1813.634399 -194.331390
-60.583187 1813.634399 -193.755371
-116.625191 1813.634399 -194.679382
-108.937187 1813.634399 -197.861389
-38.760387 1813.634399 -233.179382
-18.144989 1813.634399 -210.381378
-43.572189 1813.634399 -234.395386
-11.622990 1813.634399 -232.617371
-54.620987 1813.634399 -205.217377
-30.326790 1813.634399 -210.591370
-51.744987 1813.634399 -215.025391
-61.007591 1813.634399 -210.293365
-120.392189 1813.634399 -220.709381
-124.421188 1813.634399 -209.841370
-83.730591 1813.634399 -209.447388
-73.147789 1813.634399 -202.701385
-115.391190 1813.634399 -224.541382
-59.749390 1812.654419 -190.657379
-18.460188 1802.994385 -190.657379
-32.525188 1808.474365 -190.657379
-43.896988 1803.214355 -190.657379
-68.642990 1796.364380 -190.657379
-122.233185 1806.024414 -190.657379
-90.185585 1803.854370 -190.657379
-99.127190 1805.834351 -190.657379
-27.730188 1725.444336 -169.791382
-51.882187 1725.444336 -185.113373
-3.096339 1725.444336 -188.531372
-12.399889 1725.444336 -181.113373
-22.326788 1725.444336 -177.229370
-23.062387 1725.444336 -158.621277
-57.826988 1725.444336 -176.635376
-70.883789 1725.444336 -183.807373
-44.682789 1725.444336 -172.183380
-61.496986 1725.444336 -181.109375
-101.226189 1725.444336 -156.207184
-119.759186 1725.444336 -166.993378
-108.413185 1725.444336 -153.129181
-88.595390 1725.444336 -162.517380
-78.002190 1725.444336 -159.997284
-119.564186 1725.444336 -187.133377
-94.266190 1725.444336 -187.239380
-74.099785 1725.444336 -169.389374
-45.456589 1783.224365 -190.657379
-45.081589 1791.254395 -190.657379
-19.849388 1781.654419 -190.657379
-54.329987 1783.764404 -190.657379
-0.165259 1764.614380 -190.657379
-44.420788 1771.914429 -190.657379
-4.522860 1767.004395 -190.657379
-49.014988 1729.654419 -190.657379
-72.686188 1753.484375 -190.657379
-72.795792 1778.564453 -190.657379
-29.365189 1732.894409 -190.657379
-68.738190 1732.324341 -190.657379
-67.439789 1750.304443 -190.657379
-20.404789 1743.984375 -190.657379
-60.359989 1734.854370 -190.657379
-107.757187 1762.264404 -190.657379
-114.539192 1763.484375 -190.657379
-124.314186 1764.974365 -190.657379
-118.507187 1740.684448 -190.657379
-127.540184 1749.594360 -190.657379
-126.101189 1747.624390 -190.657379
-84.129189 1756.634399 -190.657379
-79.597191 1746.724365 -190.657379
-96.186592 1760.224365 -190.657379
-96.940186 1758.394409 -190.657379
-74.184990 1762.864380 -190.657379
-120.108185 1785.094360 -190.657379
1.507091 1796.054443 -190.657379
-59.469990 1792.524414 -190.657379
-82.527390 1795.464355 -190.657379
-20.024389 1882.804443 -320.693359
-77.653992 1882.544434 -322.027374
-9.110789 1876.674438 -332.725372
-29.398987 1865.604370 -351.559357
-34.108589 1852.974365 -373.061371
-23.042589 1852.714355 -373.507355
-60.593987 1856.304443 -367.393372
-41.203587 1859.674438 -361.657379
-15.109889 1868.154419 -347.219360
-1.042119 1871.694336 -341.209381
-25.470989 1877.624390 -331.109375
-24.185389 1878.044434 -330.397369
-46.161789 1871.534424 -341.481384
-19.157389 1879.864380 -327.293365
-39.065388 1878.784424 -329.141357
-54.644188 1881.724365 -324.127380
-48.682587 1872.314453 -340.151367
-109.008186 1854.364380 -378.547363
-90.845589 1855.504395 -371.293365
-111.943192 1871.004395 -342.501373
-116.705185 1872.734375 -339.923370
-79.373985 1853.674438 -372.349365
-98.639191 1858.894409 -365.817383
-116.082191 1856.624390 -375.389374
-77.556992 1874.364380 -336.661377
-76.531990 1876.454346 -333.095367
-86.212189 1861.304443 -358.883362
-73.274788 1860.914429 -359.551361
-90.595192 1881.444336 -324.609375
-99.100189 1870.794434 -342.737366
-9.925889 1813.634399 -309.629364
-8.157589 1813.634399 -308.681366
-32.297588 1813.634399 -309.707367
-104.138191 1813.634399 -309.873383
-129.534195 1813.394409 -317.109375
-21.500587 1854.894409 -319.515381
-22.261789 1858.624390 -319.515381
-36.886387 1861.674438 -319.515381
-60.946190 1881.504395 -319.515381
-13.364490 1869.054443 -319.515381
-0.251319 1882.784424 -319.515381
-26.926388 1848.054443 -319.515381
-12.909190 1851.044434 -319.515381
-58.344990 1821.524414 -319.515381
-40.924389 1851.474365 -319.515381
-7.704289 1820.844360 -319.515381
-52.599190 1827.944336 -319.515381
-67.929985 1856.854370 -319.515381
-54.993587 1814.084351 -319.515381
-25.541988 1821.704346 -319.515381
-23.522589 1817.484375 -319.515381
-57.458588 1861.844360 -319.515381
-103.401192 1814.154419 -319.515381
-129.998199 1844.214355 -319.515381
-111.055191 1852.544434 -319.515381
-108.924187 1844.954346 -319.515381
-96.506386 1825.444336 -319.515381
-117.496185 1813.744385 -319.515381
-113.836189 1836.534424 -319.515381
-77.835190 1878.644409 -319.515381
-81.255585 1826.064453 -319.515381
-97.488190 1851.644409 -319.515381
-80.221390 1853.884399 -319.515381
-95.046188 1870.274414 -319.515381
-104.089188 1850.654419 -319.515381
-92.597191 1861.234375 -319.515381
-230.848190 1826.454346 -250.791382
-250.614197 1844.454346 -243.533386
-248.892197 1842.894409 -256.019379
-230.736191 1826.344360 -258.807373
-240.196198 1834.964355 -236.607391
-250.944199 1844.764404 -241.743378
-233.198196 1828.594360 -237.611389
-254.598206 1848.094360 -260.955383
-233.006195 1828.414429 -264.363373
-279.980194 1871.214355 -255.677368
-279.456207 1870.744385 -269.265381
-244.900192 1839.254395 -259.691376
-297.426208 1887.114380 -245.167389
-292.878204 1882.964355 -236.261383
-317.548187 1896.304443 -241.489380
