ply
format ascii 1.0
element vertex 1339
property float x
property float y
property float z
end_header
53.406616 -2099.801270 33.835720
35.345615 -2051.811279 33.835720
65.650620 -2072.591309 33.835720
98.162117 -2023.831055 33.835720
229.766617 -2077.521240 33.835720
267.847626 -1969.441040 33.835720
88.946617 -2049.171143 33.835720
203.285629 -1970.661133 33.835720
94.679413 -2125.641113 33.835720
145.091629 -2094.931152 33.835720
63.530617 -2016.891113 33.835720
40.882118 -2130.781250 33.835720
291.357635 -1974.151123 33.835720
356.204620 -1993.521118 33.835720
33.522617 -2005.791138 33.835720
164.752625 -2029.771118 33.835720
101.112617 -2083.641113 33.835720
30.489416 -2053.771240 33.835720
60.324417 -2132.501221 33.835720
76.712418 -1992.171143 33.835720
70.128120 -2131.001221 33.835720
389.282623 -1997.641113 33.835720
179.542618 -2093.781250 33.835720
193.685623 -2058.021240 33.835720
201.336624 -1995.291138 33.835720
275.339630 -2019.401123 33.835720
297.124634 -2026.831055 33.835720
383.079620 -1987.771118 33.835720
151.599625 -1992.361084 33.835720
200.913620 -2004.671143 33.835720
23.703117 -2074.681152 33.835720
143.406631 -2081.601318 33.835720
305.284637 -1980.041138 33.835720
384.732635 -1977.371094 33.835720
206.110626 -2023.531128 33.835720
411.714630 -1984.221069 33.835720
39.964916 -2122.921143 33.835720
71.784416 -1990.721069 33.835720
268.469635 -1997.341064 33.835720
203.505630 -2029.681030 33.835720
113.224617 -2088.241211 33.835720
120.754616 -2013.651123 33.835720
251.604630 -2143.121094 33.835720
340.419617 -2036.111206 33.835720
452.549622 -2068.221191 33.835720
315.379639 -2057.801270 33.835720
449.267639 -2049.181152 33.835720
319.384613 -2064.641113 33.835720
151.856628 -2160.531250 33.835720
172.835617 -2150.581299 33.835720
382.732635 -2112.051270 33.835720
361.059631 -2081.511230 33.835720
383.972626 -2091.181152 33.835720
124.966614 -2135.171143 33.835720
215.416626 -2141.481201 33.835720
407.354614 -2005.511108 33.835720
461.359619 -2003.021118 33.835720
264.829620 -2078.521240 33.835720
443.942627 -1976.061035 33.835720
257.087616 -2089.741211 33.835720
407.859619 -2099.111328 33.835720
79.763115 -2174.331299 33.835720
329.357635 -2109.171143 33.835720
89.116119 -2155.971191 33.835720
236.773621 -2079.931152 33.835720
114.211617 -2146.671143 33.835720
309.879639 -2120.431152 33.835720
227.183624 -2119.831299 33.835720
444.887634 -1995.171143 33.835720
395.699615 -2013.091064 33.835720
401.172638 -2051.381104 33.835720
365.399628 -2053.091309 33.835720
205.128632 -2135.361328 33.835720
267.774628 -2095.011230 33.835720
376.492615 -2027.091064 33.835720
249.757629 -2119.511230 33.835720
427.567627 -2042.301147 33.835720
294.824615 -2127.411133 33.835720
120.278618 -2164.241211 33.835720
242.610626 -2117.311279 33.835720
411.379639 -2043.721069 33.835720
184.589630 -2149.701172 33.835720
450.472626 -2118.621094 33.835720
314.422638 -2056.541260 33.835720
420.399628 -1988.481079 33.835720
323.787628 -2072.361328 33.835720
410.607635 -2031.811157 33.835720
438.529633 -2055.791260 33.835720
170.787628 -2112.331299 33.835720
232.453629 -2102.881104 33.835720
182.102631 -2148.041260 33.835720
97.241615 -2163.011230 33.835720
368.014618 -2027.681030 33.835720
336.747620 -2057.521240 33.835720
326.154633 -2063.331299 33.835720
369.259613 -2119.961182 33.835720
287.872620 -2116.721191 33.835720
215.363617 -2121.631104 33.835720
168.724625 -2124.731201 33.835720
402.669617 -2083.591309 33.835720
427.792633 -1982.241089 33.835720
373.982635 -2059.231201 33.835720
296.152618 -2122.121094 33.835720
69.989113 -2168.611328 33.835720
262.122620 -2138.991211 33.835720
378.302612 -2089.281250 33.835720
355.672638 -2044.231079 33.835720
206.409622 -2094.131104 33.835720
371.202637 -2124.431152 33.835720
420.262634 -2090.901123 33.835720
415.487610 -2025.221069 33.835720
353.009613 -2034.181030 33.835720
235.214630 -2097.451172 33.835720
310.742615 -2074.991211 33.835720
288.649628 -2057.531250 33.835720
303.174622 -2106.621094 33.835720
186.155624 -2102.251221 33.835720
301.237610 -2108.561279 33.835720
263.234619 -2134.821289 33.835720
215.266617 -2151.551270 33.835720
397.894623 -2059.351318 33.835720
-473.240387 -1961.861084 -156.521591
-469.797363 -1962.031128 2.045706
-469.467377 -1962.051147 7.683159
-464.515381 -1962.301147 -169.716583
-463.972382 -1962.331055 12.895720
-465.485382 -1962.251099 -49.036884
-38.988583 -1973.151123 -97.259377
-30.578382 -1973.361084 -36.444283
-24.680784 -1973.511108 -168.884583
-116.389381 -1971.181030 17.278219
-219.288376 -1968.561035 2.735708
-212.378372 -1968.741089 27.845619
-300.512390 -1966.501099 -51.234283
-26.344883 -1973.471069 -153.504593
-184.772369 -1969.441040 -38.321781
-223.077377 -1968.471069 9.218189
-397.935364 -1964.021118 12.488119
-60.950085 -1972.591064 -46.581783
-191.838379 -1969.261108 24.530720
-104.926384 -1971.471069 10.580738
-394.747375 -1964.101074 30.225618
-41.332584 -1973.091064 -145.616592
-314.295380 -1966.151123 29.140718
-60.083084 -1972.611084 -187.546585
-262.437378 -1967.471069 30.165619
-41.876583 -1973.071045 22.968220
-211.559372 -1968.761108 -113.929581
-119.043381 -1971.111084 17.970619
-9.263563 -1973.901123 -16.676781
-247.468369 -1967.851074 -41.964382
-138.908371 -1970.611084 -159.449585
-326.992371 -1965.821045 -10.946882
-156.223373 -1970.171143 -127.334572
-34.413383 -1973.261108 -141.821579
-140.097382 -1970.581055 -37.929382
-329.655365 -1965.761108 21.390718
-88.699883 -1971.881104 -105.531578
-267.825378 -1967.331055 17.688118
-46.361584 -1972.961060 -50.591782
-113.441383 -1971.251099 -168.246582
-7.596593 -1973.941040 23.393120
-185.588379 -1969.421143 -84.221779
-37.439884 -1973.191040 -5.721871
-34.361084 -1973.261108 -89.256882
-232.464371 -1968.231079 -65.826782
-108.270386 -1971.381104 -145.356583
-35.473385 -1973.241089 -128.144592
-298.172363 -1966.561035 -53.851784
-326.347382 -1965.841064 -45.386784
-179.600372 -1969.571045 3.695669
-323.025391 -1965.931030 -44.764381
-367.290375 -1964.801147 8.743158
-160.603378 -1970.051147 -136.534592
-228.749374 -1968.321045 30.945719
-239.569382 -1968.051147 -64.731781
-98.002083 -1971.651123 -34.811783
-210.238373 -1968.791138 -73.861778
-181.606369 -1969.521118 -30.579279
-21.340282 -1973.591064 -108.404579
-49.281384 -1972.881104 -158.034592
-288.287384 -1966.811035 27.245720
-126.342384 -1970.931030 -66.984276
-248.299377 -1967.831055 18.445719
-294.737366 -1966.641113 -47.444283
-93.333885 -1971.761108 -155.469589
-190.827377 -1969.291138 -52.004383
-301.405365 -1966.481079 -1.989271
-116.201385 -1971.181030 -92.786880
-105.596382 -1971.451050 -131.089584
-104.867386 -1971.471069 -171.689590
-94.602585 -1971.731079 -80.346779
-392.712372 -1964.151123 -7.279312
-72.958885 -1972.281128 -44.606781
-114.060387 -1971.241089 -98.299576
-128.235382 -1970.881104 -103.559578
-158.160370 -1970.121094 -92.749382
-308.732361 -1966.291138 2.860647
-39.322884 -1973.141113 -67.996880
-351.395386 -1965.201050 6.065669
-4.784243 -1974.021118 -38.316883
-16.622583 -1973.711060 -225.716583
-281.480377 -1966.981079 -46.474281
-330.645386 -1965.731079 -33.161781
-116.595383 -1971.171143 21.430618
-222.446381 -1968.481079 -68.581879
-198.414383 -1969.091064 -110.719582
-226.635376 -1968.381104 -42.034382
-330.402374 -1965.741089 30.110619
-103.450386 -1971.511108 -54.574284
-9.693394 -1973.891113 -205.521591
-124.785385 -1970.971069 33.738216
-41.277882 -1973.091064 -152.089584
-86.237083 -1971.951050 -19.294380
-176.781372 -1969.641113 -22.189381
-406.645386 -1963.801147 25.740719
-141.182373 -1970.551147 -153.711594
-117.733383 -1971.141113 -36.411884
-128.661377 -1970.871094 8.488149
-410.075378 -1963.711060 20.080620
-86.411385 -1971.941040 -13.221882
-109.944382 -1971.341064 -68.064377
-205.799377 -1968.911133 25.950720
-142.540375 -1970.511108 -51.821884
-33.317081 -1973.291138 -166.076584
-275.857361 -1967.121094 -46.416782
-76.990883 -1972.181030 10.335749
-69.572586 -1972.371094 -162.429581
-311.620361 -1966.221069 2.145681
-183.237381 -1969.481079 0.068169
-49.399582 -1972.881104 -170.539581
-246.559372 -1967.871094 -10.431881
-224.493378 -1968.431030 -57.976784
-153.030380 -1970.251099 -75.771782
-275.510376 -1967.131104 -68.516876
-101.089882 -1971.571045 30.303120
-284.195374 -1966.911133 -4.756841
-160.334381 -1970.061035 18.408218
-349.145386 -1965.261108 -9.736782
-9.009763 -1973.911133 -45.836884
-237.625381 -1968.101074 -38.156784
-32.787884 -1973.301147 -92.246880
-136.165375 -1970.681030 -158.846588
-287.962372 -1966.821045 -5.471811
-149.170380 -1970.351074 -146.531586
-30.279583 -1973.371094 -31.159281
-18.362484 -1973.671143 -31.791780
-72.512085 -1972.291138 -137.221588
-288.912384 -1966.791138 20.840620
-2.172029 -1974.081055 -67.604279
-373.650391 -1964.641113 9.345689
-94.368080 -1971.741089 -149.076584
-73.883881 -1972.261108 -77.909279
-52.338085 -1972.811035 -63.834385
-80.331085 -1972.101074 -133.116592
-52.174385 -1972.811035 -93.884377
-15.208384 -1973.751099 33.670719
-128.064377 -1970.881104 -1.711861
-271.892365 -1967.231079 -68.511879
-11.784384 -1973.841064 15.315720
-322.685364 -1965.931030 -31.036882
-132.559372 -1970.771118 -74.414276
-213.137375 -1968.721069 1.923147
-229.545380 -1968.301147 -43.794281
-48.186085 -1972.911133 -83.276779
-33.308384 -1973.291138 -43.306881
-361.625366 -1964.941040 -5.506781
-63.426582 -1972.521118 -120.114578
-397.075378 -1964.041138 30.225618
-262.330383 -1967.471069 -81.016876
-121.688385 -1971.041138 -222.204590
-216.136383 -1968.641113 -166.021591
-370.165375 -1964.731079 -220.204590
-272.040375 -1967.221069 -212.959579
-297.870361 -1966.571045 -141.181580
-456.792389 -1962.531128 -21.926781
-402.425385 -1963.911133 -154.506592
-24.899683 -1973.501099 -241.181580
-425.170380 -1963.331055 -96.894279
-426.592377 -1963.291138 -216.979584
-419.285370 -1963.481079 -50.131783
-328.440369 -1965.791138 -126.949577
-459.272369 -1962.461060 22.758219
-320.707367 -1965.981079 -120.261581
-296.435364 -1966.601074 -93.844276
-109.420380 -1971.361084 -203.431580
-374.940369 -1964.611084 -230.951584
-426.095367 -1963.311035 -88.994377
-90.759583 -1971.831055 -220.771591
-224.961380 -1968.421143 -230.831589
-393.760376 -1964.131104 -24.814381
-436.317383 -1963.051147 -183.981583
-438.215363 -1963.001099 -42.634281
-456.230377 -1962.541138 -121.994576
-450.900391 -1962.671143 14.805719
-207.979370 -1968.851074 -152.424591
-455.300385 -1962.561035 -128.196579
-313.242371 -1966.171143 -216.194580
-377.267365 -1964.551147 -237.524582
-267.162384 -1967.351074 -229.366592
-195.279373 -1969.171143 -194.621582
-380.925385 -1964.451050 -189.824585
-453.192383 -1962.621094 -23.601780
-425.695374 -1963.321045 -219.961594
-199.040375 -1969.081055 -196.641586
-289.212372 -1966.791138 -178.741592
-447.610382 -1962.761108 -111.974579
-173.011383 -1969.741089 -165.426590
-272.797363 -1967.201050 -119.334579
-210.131378 -1968.801147 -118.754578
-461.967377 -1962.391113 -238.129593
-444.020386 -1962.851074 -201.419586
-381.607361 -1964.441040 -232.376587
-347.905365 -1965.291138 -101.194580
-216.352371 -1968.641113 -141.896591
-281.210388 -1966.991089 -79.849380
-269.575378 -1967.281128 -166.214584
-431.295380 -1963.171143 -142.381592
-442.630371 -1962.891113 -165.964584
-373.167389 -1964.651123 -128.336594
-361.000366 -1964.961060 -211.799591
-270.750366 -1967.251099 -90.324280
-459.887390 -1962.451050 5.885669
-55.923584 -1972.721069 -241.529587
-456.827362 -1962.521118 -43.619381
-372.415375 -1964.671143 -65.614281
-211.737381 -1968.751099 -141.034592
-384.370361 -1964.371094 -46.631882
-391.790375 -1964.181030 -206.736588
-366.472382 -1964.821045 -186.579590
-74.372086 -1972.251099 -213.781586
-74.254082 -1972.251099 -201.469589
-459.250366 -1962.461060 -20.336882
-269.975372 -1967.271118 -184.591583
-113.594383 -1971.251099 -212.499588
-331.050385 -1965.721069 -230.166580
-421.852386 -1963.411133 -127.434578
-331.532379 -1965.711060 -109.229576
-325.520386 -1965.861084 -133.754593
-325.125366 -1965.871094 -181.776581
-398.757385 -1964.001099 -226.154587
-448.740387 -1962.731079 -95.171776
-298.007385 -1966.561035 -220.014587
-418.177368 -1963.511108 -66.121880
-383.757385 -1964.381104 -241.669586
-149.296371 -1970.341064 -175.394592
-463.447388 -1962.361084 -90.124382
-428.275391 -1963.251099 -113.356583
-461.255371 -1962.411133 -12.229382
-378.750366 -1964.511108 -230.456589
-162.956375 -1969.991089 -215.519592
-147.101379 -1970.401123 -179.174591
-286.507385 -1966.851074 -118.416580
-375.417389 -1964.591064 -133.266586
-236.132370 -1968.131104 -197.044586
-341.770386 -1965.451050 -47.026882
-459.812378 -1962.451050 -116.209579
-365.987366 -1964.831055 -222.929581
-448.010376 -1962.751099 -86.124382
-300.662384 -1966.491089 -123.946579
-334.480377 -1965.631104 -152.821579
-110.905380 -1971.321045 -224.914581
-52.558384 -1972.801147 -226.886581
-297.362366 -1966.581055 -133.314590
-397.902374 -1964.021118 -100.551582
-455.750366 -1962.551147 -168.016586
-277.315369 -1967.091064 -206.651581
-356.820374 -1965.071045 -84.271782
-249.900375 -1967.781128 -166.384583
-168.852371 -1969.841064 -236.506592
-289.037384 -1966.791138 -212.286591
-186.048370 -1969.411133 -216.444580
-415.115387 -1963.581055 -224.496582
-304.937378 -1966.391113 -105.869576
-40.821884 -1973.101074 -222.561584
-460.950378 -1962.421143 -110.806580
-412.660370 -1963.651123 -130.149582
-232.462372 -1968.231079 -133.416580
-460.952362 -1962.421143 -75.881882
-378.127380 -1964.521118 -227.294586
-301.052368 -1966.481079 -184.674591
-363.102386 -1964.911133 -164.516586
-389.095367 -1964.251099 -80.321877
-381.630371 -1964.441040 -125.614578
-417.047363 -1963.541138 -208.401581
-208.513382 -1968.841064 -168.889587
-284.727386 -1966.901123 -165.501587
-458.060364 -1962.491089 -12.076881
-280.612366 -1967.001099 -162.414581
-443.880371 -1962.851074 -191.784592
-398.620361 -1964.001099 -179.074585
-305.912384 -1966.361084 -211.519592
-165.940369 -1969.921143 -189.666580
-327.265381 -1965.821045 -62.729282
-456.147369 -1962.541138 -101.644577
-217.410370 -1968.611084 -172.584579
-114.077385 -1971.241089 -232.504593
-76.772385 -1972.191040 -196.704590
-398.752380 -1964.001099 -32.501781
-442.010376 -1962.901123 -106.934578
-432.685364 -1963.141113 -65.606781
-457.422363 -1962.511108 -204.154587
-361.105377 -1964.961060 -114.576576
-429.065369 -1963.231079 -90.094376
-202.413376 -1968.991089 -163.596588
-78.245583 -1972.151123 -197.094589
-369.147369 -1964.751099 -94.251877
-255.770370 -1967.641113 -240.099594
-423.557373 -1963.371094 -191.681580
-309.285370 -1966.271118 -74.074379
-111.899384 -1971.291138 -181.894592
-234.860382 -1968.171143 -154.354584
-233.555374 -1968.201050 -216.966583
-465.670380 -1974.221069 -241.754593
-466.812378 -2104.581299 -241.754593
-466.505371 -2085.571289 -241.754593
-471.427368 -2186.641113 -241.754593
-467.510376 -2218.371094 -241.754593
-467.812378 -2222.171143 -241.754593
589.534607 -2137.771240 -111.501579
-105.725380 -2221.251221 -241.754593
-216.817383 -2058.581299 -241.754593
-41.754883 -2008.821045 -241.754593
-78.141884 -2082.791260 -241.754593
-52.566383 -2204.061279 -241.754593
-258.785370 -2056.821289 -241.754593
-26.038383 -2139.911133 -241.754593
-60.015385 -2022.301147 -241.754593
-210.470383 -2048.981201 -241.754593
-40.506882 -2062.031250 -241.754593
-244.662369 -1994.551147 -241.754593
-15.074284 -2116.481201 -241.754593
-280.565369 -2034.120972 -241.754593
-84.278381 -2137.331299 -241.754593
-170.276382 -2072.421143 -241.754593
-283.720367 -2054.131104 -241.754593
-101.832382 -2095.211182 -241.754593
-228.476379 -2098.331299 -241.754593
-367.880371 -1979.811035 -241.754593
-232.475372 -1974.661133 -241.754593
-82.380882 -2098.251221 -241.754593
-190.362381 -2156.631104 -241.754593
-301.715363 -2066.701172 -241.754593
-354.947388 -1995.021118 -241.754593
-253.242371 -2112.081299 -241.754593
-5.708793 -1977.491089 -241.754593
-330.355377 -2051.901123 -241.754593
-168.949371 -2151.071289 -241.754593
-434.415375 -1972.521118 -241.754593
-105.274384 -2138.131104 -241.754593
-4.435613 -2109.731201 -241.754593
-25.726784 -2197.121094 -241.754593
-43.481884 -2059.871094 -241.754593
-145.759369 -1994.151123 -241.754593
-359.437378 -2019.941040 -241.754593
-219.484375 -2031.021118 -241.754593
-108.514381 -2183.801270 -241.754593
-43.748085 -1984.071045 -241.754593
-130.920380 -2156.501221 -241.754593
-5.018243 -2239.971191 -241.754593
-73.691582 -2168.241211 -241.754593
-164.913376 -2127.791260 -241.754593
-26.743883 -2084.281250 -241.754593
-9.941463 -2271.381104 -241.754593
-3.920763 -2280.571289 -241.754593
-204.188370 -1983.821045 -241.754593
-151.784378 -2017.631104 -241.754593
-52.964382 -2153.021240 -241.754593
-98.631386 -2050.121094 -241.754593
-165.882370 -1971.231079 -241.754593
-297.477386 -2075.691162 -241.754593
-110.073387 -2099.171143 -241.754593
-163.541382 -2102.951172 -241.754593
-309.392365 -1986.231079 -241.754593
-89.853081 -2199.851318 -241.754593
-87.111580 -2173.431152 -241.754593
-349.102386 -1981.111084 -241.754593
-121.739380 -2015.471069 -241.754593
-289.502380 -2046.441040 -241.754593
-22.081484 -2148.521240 -241.754593
-130.539383 -2009.961060 -241.754593
-232.636383 -2068.971191 -241.754593
-204.134369 -2006.891113 -241.754593
-13.384183 -2179.571289 -241.754593
-208.453369 -1969.571045 -241.754593
-394.192383 -1971.411133 -241.754593
-53.631382 -2109.371094 -241.754593
-50.673084 -2124.651123 -241.754593
-220.914383 -1997.671143 -241.754593
-295.217377 -1990.221069 -241.754593
-115.382385 -1991.321045 -241.754593
-8.577493 -2283.551270 -241.754593
-154.125381 -2084.741211 -241.754593
-67.318581 -2027.511108 -241.754593
-371.967377 -1983.081055 -241.754593
-34.596882 -2042.921021 -241.754593
-373.477386 -1992.741089 -241.754593
-23.927483 -2084.791260 -241.754593
-35.517082 -2133.131104 -241.754593
-56.920082 -2089.981201 -241.754593
-290.512390 -2014.161133 -241.754593
-145.549377 -1979.731079 -241.754593
-118.066383 -2194.311279 -241.754593
-306.277374 -2059.661133 -241.754593
-120.729385 -2005.341064 -241.754593
-65.918884 -2039.880981 -241.754593
-234.403381 -2015.841064 -241.754593
-243.564377 -2009.301147 -241.754593
-71.748085 -2059.661133 -241.754593
-42.862583 -2255.261230 -241.754593
-177.534378 -2073.241211 -241.754593
-26.637083 -2124.231201 -241.754593
-66.476585 -2085.181152 -241.754593
-281.947388 -1973.411133 -241.754593
-111.399384 -2193.851318 -241.754593
-110.357384 -2025.111084 -241.754593
-24.847282 -2184.411133 -241.754593
-132.068375 -1998.521118 -241.754593
-29.172583 -2004.121094 -241.754593
-154.853378 -2118.981201 -241.754593
-46.363884 -1974.961060 -241.754593
-316.027374 -2036.731079 -241.754593
-92.001587 -2232.091309 -241.754593
-86.432884 -2147.831299 -241.754593
-253.262375 -2066.021240 -241.754593
-90.734383 -2127.761230 -241.754593
-107.421387 -2219.311279 -241.754593
-355.372375 -2032.211060 -241.754593
-326.582367 -2040.611206 -241.754593
-42.521084 -2059.411133 -241.754593
-204.568375 -2066.431152 -241.754593
-98.159882 -1997.341064 -241.754593
-276.530365 -1971.331055 -241.754593
-32.652584 -2218.331299 -241.754593
-37.234383 -2248.981201 -241.754593
-290.482361 -2083.141113 -241.754593
-195.465378 -1975.891113 -241.754593
-61.518883 -1999.381104 -241.754593
-98.242386 -2221.961182 -241.754593
-105.074387 -2187.971191 -241.754593
-264.260376 -2008.081055 -241.754593
-183.566376 -1987.561035 -241.754593
-127.757385 -2047.620972 -241.754593
-99.522385 -2153.121094 -241.754593
-141.687378 -2127.231201 -241.754593
-134.792374 -2002.041138 -241.754593
-24.766384 -2034.021118 -241.754593
-12.916083 -2110.351318 -241.754593
-167.241379 -2083.731201 -241.754593
-136.441376 -2019.421143 -241.754593
-141.114380 -2173.471191 -241.754593
-188.493378 -2009.771118 -241.754593
-34.790882 -2028.501099 -241.754593
-114.047386 -2050.691162 -241.754593
-358.342377 -1989.241089 -241.754593
-8.397763 -2021.001099 -241.754593
-119.306381 -2130.491211 -241.754593
-161.230377 -2172.501221 -241.754593
-248.548370 -1986.871094 -241.754593
-74.041885 -2072.431152 -241.754593
-46.648884 -2164.891113 -241.754593
-274.962372 -2042.630981 -241.754593
-10.434914 -2146.591309 -241.754593
-290.992371 -1967.771118 -241.754593
-69.120880 -2042.120972 -241.754593
-33.473583 -2026.641113 -241.754593
-249.251373 -2117.321289 -241.754593
-5.267543 -2185.241211 -241.754593
-129.368378 -2006.101074 -241.754593
-178.325378 -2085.671143 -241.754593
-142.545380 -1995.811035 -241.754593
-286.465363 -2071.091309 -241.754593
-90.288887 -2195.811279 -241.754593
-267.815369 -2066.871094 -241.754593
-18.932783 -2098.181152 -241.754593
-115.343384 -2065.311279 -241.754593
-78.801582 -2010.831055 -241.754593
-238.766373 -2098.381104 -241.754593
-216.714371 -1971.111084 -241.754593
-32.165081 -2001.771118 -241.754593
-240.306381 -1980.911133 -241.754593
-81.840385 -2160.351318 -241.754593
-50.982883 -2197.191162 -241.754593
-45.358383 -2158.171143 -241.754593
-267.930389 -1983.481079 -241.754593
-92.880386 -2164.061279 -241.754593
-33.656384 -2011.371094 -241.754593
-209.874374 -2119.541260 -241.754593
-108.768387 -2121.231201 -241.754593
-184.816376 -2241.181152 -241.754593
-226.566376 -2147.511230 -241.754593
-431.492371 -2145.101318 -241.754593
-460.307373 -2189.971191 -241.754593
-154.562378 -2212.031250 -241.754593
-302.235382 -2102.701172 -241.754593
-381.732361 -2185.111328 -241.754593
-187.280380 -2260.641113 -241.754593
-413.130371 -2040.211060 -241.754593
-270.582367 -2234.611328 -241.754593
-417.865387 -2119.941162 -241.754593
-220.939377 -2197.401123 -241.754593
-417.670380 -2082.921143 -241.754593
-146.315369 -2227.481201 -241.754593
-395.302368 -2050.191162 -241.754593
-98.061584 -2254.281250 -241.754593
-425.922363 -2175.521240 -241.754593
-191.947372 -2195.861328 -241.754593
-360.002380 -2122.591309 -241.754593
-371.650391 -2101.641113 -241.754593
-233.264374 -2205.921143 -241.754593
-309.237366 -2184.611328 -241.754593
-215.216370 -2235.491211 -241.754593
-381.865387 -2092.091309 -241.754593
-167.831375 -2200.341309 -241.754593
-185.868378 -2188.601318 -241.754593
-309.117371 -2096.431152 -241.754593
-359.330383 -2097.231201 -241.754593
-153.019379 -2240.991211 -241.754593
-237.228378 -2175.541260 -241.754593
-395.422363 -2197.941162 -241.754593
-429.412384 -2088.051270 -241.754593
-215.441376 -2197.491211 -241.754593
-151.521378 -2194.701172 -241.754593
-457.472382 -2000.311035 -241.754593
-444.067383 -2188.051270 -241.754593
-362.060364 -2117.051270 -241.754593
-340.035370 -2079.961182 -241.754593
-376.710388 -2085.641113 -241.754593
-253.755371 -2203.951172 -241.754593
-336.247375 -2237.801270 -241.754593
-332.067383 -2081.061279 -241.754593
-219.580383 -2218.781250 -241.754593
-372.715363 -2056.521240 -241.754593
-360.405365 -2143.481201 -241.754593
-427.375366 -2090.321289 -241.754593
-360.097382 -2102.341309 -241.754593
-365.557373 -2160.581299 -241.754593
-323.725372 -2200.091309 -241.754593
-162.832382 -2252.461182 -241.754593
-345.552368 -2178.541260 -241.754593
-460.252380 -2149.951172 -241.754593
-343.307373 -2163.681152 -241.754593
-425.737366 -2141.101318 -241.754593
-349.765381 -2084.131104 -241.754593
-386.985382 -2033.701050 -241.754593
-347.697388 -2198.151123 -241.754593
-327.290375 -2219.311279 -241.754593
-148.216370 -2270.061279 -241.754593
-449.525391 -2100.591309 -241.754593
-342.445374 -2065.401123 -241.754593
-384.177368 -2155.241211 -241.754593
-310.992371 -2249.131104 -241.754593
-267.177368 -2211.151123 -241.754593
-126.774384 -2238.861328 -241.754593
-198.692383 -2157.481201 -241.754593
-436.147369 -2127.231201 -241.754593
-164.864380 -2204.531250 -241.754593
-386.065369 -2097.571289 -241.754593
-237.196381 -2194.761230 -241.754593
-361.947388 -2227.371094 -241.754593
-394.127380 -2169.351318 -241.754593
-285.162384 -2141.161133 -241.754593
-274.720367 -2167.091309 -241.754593
-282.120361 -2139.321289 -241.754593
-387.087372 -2198.081299 -241.754593
-276.395386 -2215.421143 -241.754593
-270.370361 -2174.541260 -241.754593
-214.178375 -2224.861328 -241.754593
-370.262390 -2041.961060 -241.754593
-373.822388 -2067.691162 -241.754593
-329.580383 -2151.951172 -241.754593
-296.022369 -2169.931152 -241.754593
-114.960381 -2275.461182 -241.754593
-145.803375 -2264.701172 -241.754593
-277.967377 -2102.201172 -241.754593
-307.092377 -2093.981201 -241.754593
-460.760376 -1982.801147 -241.754593
-255.095383 -2131.571289 -241.754593
-205.476379 -2152.371094 -241.754593
-433.992371 -2031.411011 -241.754593
-310.960388 -2105.201172 -241.754593
-372.955383 -2053.321289 -241.754593
-341.405365 -2224.351318 -241.754593
-323.682373 -2228.341309 -241.754593
-118.256386 -2232.031250 -241.754593
-190.669373 -2220.161133 -241.754593
-390.610382 -2185.951172 -241.754593
-347.092377 -2184.471191 -241.754593
-157.057373 -2255.961182 -241.754593
-152.646378 -2229.861328 -241.754593
-359.862366 -2082.741211 -241.754593
-324.227386 -2139.021240 -241.754593
-262.942383 -2204.471191 -241.754593
-410.570374 -2182.401123 -241.754593
-209.957382 -2163.151123 -241.754593
-381.215363 -2188.941162 -241.754593
-450.977386 -2149.811279 -241.754593
-202.541382 -2251.651123 -241.754593
-391.595367 -2066.041260 -241.754593
-277.537384 -2164.771240 -241.754593
-151.331375 -2239.241211 -241.754593
-439.880371 -2176.171143 -241.754593
-143.657379 -2201.791260 -241.754593
-319.640381 -2127.501221 -241.754593
-393.090363 -2143.731201 -241.754593
-161.768372 -2182.881104 -241.754593
-358.830383 -2141.291260 -241.754593
-446.165375 -2025.621094 -241.754593
-460.950378 -2015.251099 -241.754593
-189.365372 -2246.921143 -241.754593
-126.624382 -2210.841309 -241.754593
-460.432373 -2020.981079 -241.754593
-193.614380 -2261.671143 -241.754593
-223.848373 -2190.671143 -241.754593
-354.880371 -2102.091309 -241.754593
-271.415375 -2150.641113 -241.754593
-452.615387 -2089.941162 -241.754593
-245.697372 -2185.721191 -241.754593
-453.447388 -2125.721191 -241.754593
-295.070374 -2151.411133 -241.754593
-370.125366 -2209.511230 -241.754593
-46.615582 -2287.661133 -241.754593
-263.847382 -2191.561279 -241.754593
-199.197372 -2197.291260 -241.754593
-152.702377 -2266.381104 -241.754593
-391.690369 -2219.081299 -241.754593
-412.015381 -2000.971069 -241.754593
630.117615 -2138.251221 -29.699381
-464.275391 -2099.921143 33.835720
-465.745361 -2108.531250 33.835720
-467.515381 -1972.231079 33.835720
-142.108383 -2163.851318 33.835720
-15.816383 -2177.191162 33.835720
-40.076885 -1988.221069 33.835720
-306.560364 -2140.811279 33.835720
-54.884384 -2081.151123 33.835720
-188.067383 -2144.491211 33.835720
-284.787384 -2122.261230 33.835720
-65.148079 -2146.961182 33.835720
-38.575382 -2107.611328 33.835720
-25.252583 -2095.751221 33.835720
-268.310364 -2103.071289 33.835720
-163.479370 -2074.521240 33.835720
-119.222382 -2020.491089 33.835720
-139.850372 -2061.631104 33.835720
-187.988373 -2084.171143 33.835720
-62.557884 -2161.961182 33.835720
-73.180580 -2004.961060 33.835720
-18.993483 -2049.121094 33.835720
-222.733383 -2148.601318 33.835720
-91.552086 -2120.351318 33.835720
-61.663883 -2107.111328 33.835720
-269.612366 -2094.151123 33.835720
-296.087372 -2071.061279 33.835720
-59.073582 -2088.621094 33.835720
-141.619370 -2083.701172 33.835720
-13.652483 -2165.201172 33.835720
-12.966084 -2042.551147 33.835720
-51.597885 -2157.861328 33.835720
-97.197586 -2027.311035 33.835720
-152.467377 -2127.721191 33.835720
-31.195883 -2063.581299 33.835720
-98.935883 -2087.751221 33.835720
-101.442383 -2012.881104 33.835720
-241.995377 -2121.631104 33.835720
-305.305389 -2121.261230 33.835720
-150.963379 -2032.851196 33.835720
-27.862083 -2065.131104 33.835720
-150.605377 -2063.301270 33.835720
-42.357082 -2090.941162 33.835720
-310.217377 -2135.581299 33.835720
-23.915184 -2125.751221 33.835720
-357.087372 -2127.751221 33.835720
-9.859293 -2178.411133 33.835720
-195.298370 -2143.101318 33.835720
-161.738373 -2043.441040 33.835720
-115.527382 -2146.861328 33.835720
-119.174385 -2043.661011 33.835720
-17.139482 -2103.531250 33.835720
-110.797386 -2168.081299 33.835720
-367.105377 -2106.151123 33.835720
-168.637375 -2107.891113 33.835720
-42.824085 -1995.911133 33.835720
-67.964584 -2061.281250 33.835720
-152.096375 -2120.791260 33.835720
-194.274368 -2097.091309 33.835720
-364.552368 -2086.781250 33.835720
-115.976387 -2035.071167 33.835720
-123.669380 -2146.541260 33.835720
-329.460388 -2092.001221 33.835720
-12.603983 -2101.581299 33.835720
-322.237366 -2124.811279 33.835720
-93.122086 -2039.211060 33.835720
-34.383583 -2137.721191 33.835720
-132.854370 -2142.781250 33.835720
-135.150375 -2147.451172 33.835720
-217.983383 -2142.371094 33.835720
-76.201385 -2047.011108 33.835720
-222.876373 -2096.101318 33.835720
-197.784378 -2123.921143 33.835720
-42.507584 -2079.991211 33.835720
-130.078369 -2134.571289 33.835720
-187.901382 -2049.001221 33.835720
-35.574585 -2088.611328 33.835720
-279.707367 -2139.551270 33.835720
-180.500381 -2127.551270 33.835720
-91.208382 -2062.031250 33.835720
-343.132385 -2105.901123 33.835720
-64.164078 -2019.011108 33.835720
-332.782379 -2083.711182 33.835720
-43.747383 -2026.831055 33.835720
-89.128586 -2098.161133 33.835720
-301.357361 -2123.871094 33.835720
-156.051376 -2063.261230 33.835720
-420.627380 -2107.041260 33.835720
-107.672386 -2166.321289 33.835720
-88.699081 -2074.031250 33.835720
-97.816086 -2010.301147 33.835720
-112.719383 -2048.491211 33.835720
-224.952377 -2151.391113 33.835720
-50.373585 -2168.541260 33.835720
-209.361374 -2138.431152 33.835720
-313.105377 -2126.121094 33.835720
-103.675385 -2040.091187 33.835720
-17.191183 -2073.591309 33.835720
-79.385384 -2160.461182 33.835720
-28.504383 -2036.471069 33.835720
-260.500366 -2069.951172 33.835720
-181.981369 -2048.651123 33.835720
-18.673883 -2076.201172 33.835720
-179.315369 -2040.101196 33.835720
-90.558380 -2152.261230 33.835720
-110.850380 -2119.961182 33.835720
-108.260384 -2063.141113 33.835720
-9.898993 -2175.461182 33.835720
-377.307373 -2111.521240 33.835720
-32.421082 -2177.741211 33.835720
-245.412369 -2103.671143 33.835720
-113.923386 -2168.001221 33.835720
-43.905582 -2168.331299 33.835720
-37.917084 -2166.401123 33.835720
-290.260376 -2099.401123 33.835720
-336.097382 -2072.201172 33.835720
-418.127380 -2019.801147 33.835720
-238.915375 -2032.861206 33.835720
-428.665375 -2093.361328 33.835720
-348.280365 -2051.001221 33.835720
-450.002380 -2045.161011 33.835720
-352.010376 -1999.651123 33.835720
-322.412384 -2015.091064 33.835720
-98.378883 -1992.541138 33.835720
-221.478378 -1980.241089 33.835720
-370.592377 -2012.271118 33.835720
-279.030365 -1986.891113 33.835720
-305.862366 -1971.621094 33.835720
-403.980377 -1985.721069 33.835720
-314.630371 -1985.701050 33.835720
-54.428383 -1979.691040 33.835720
-460.007385 -1991.201050 33.835720
-407.175385 -2052.281250 33.835720
-407.752380 -2076.301270 33.835720
-348.135376 -2033.171021 33.835720
-275.865387 -1994.691040 33.835720
-160.353378 -1991.841064 33.835720
-454.470367 -2094.301270 33.835720
-458.192383 -1996.421143 33.835720
-385.692383 -2022.761108 33.835720
-382.397369 -2033.051147 33.835720
-196.844376 -2030.130981 33.835720
-436.572388 -2062.771240 33.835720
-324.460388 -1978.121094 33.835720
-401.277374 -1964.641113 33.835720
-428.315369 -2012.311035 33.835720
-138.783371 -1990.771118 33.835720
-254.432373 -2028.811035 33.835720
-252.287369 -1973.901123 33.835720
-274.320374 -2055.431152 33.835720
-243.819382 -2024.881104 33.835720
-362.330383 -1990.571045 33.835720
-341.627380 -2014.351074 33.835720
-434.440369 -2079.831299 33.835720
-175.671371 -2010.671143 33.835720
-404.137390 -1991.601074 33.835720
-342.050385 -2032.761108 33.835720
-184.705383 -2013.981079 33.835720
-224.450378 -2037.211060 33.835720
-194.156372 -1978.291138 33.835720
-354.217377 -2080.051270 33.835720
-268.070374 -2038.041138 33.835720
-293.060364 -1969.371094 33.835720
-449.635376 -2110.601318 33.835720
-438.215363 -1996.781128 33.835720
-452.145386 -2018.961060 33.835720
-449.115387 -2066.841309 33.835720
-214.598373 -2030.870972 33.835720
-181.019379 -1982.221069 33.835720
-329.490387 -2040.741089 33.835720
-299.470367 -1983.091064 33.835720
-432.372375 -1972.151123 33.835720
-89.771881 -1977.111084 33.835720
-304.247375 -2052.491211 33.835720
-231.709381 -2001.231079 33.835720
-441.025391 -1997.431030 33.835720
-336.000366 -2032.911011 33.835720
-456.795380 -2046.011108 33.835720
-401.080383 -2077.431152 33.835720
-218.834381 -2005.581055 33.835720
-368.102386 -2075.421143 33.835720
-321.787384 -1988.901123 33.835720
-401.737366 -2010.541138 33.835720
-331.840363 -2019.221069 33.835720
-441.440369 -2030.451050 33.835720
-57.029083 -1981.431030 33.835720
-444.882385 -1988.311035 33.835720
-218.187378 -2018.231079 33.835720
-410.050385 -2005.611084 33.835720
-194.417374 -1990.881104 33.835720
-150.893372 -2004.161133 33.835720
-252.290375 -1970.891113 33.835720
-412.957367 -2025.941040 33.835720
-379.215363 -2049.591309 33.835720
-409.490387 -1975.331055 33.835720
-460.152374 -1994.021118 33.835720
648.332581 -2133.961182 -89.221779
651.992615 -2135.421143 -75.559380
469.364624 -1961.961060 -94.559380
470.812622 -1961.881104 -214.619583
469.942627 -1961.931030 -119.419579
461.724609 -1962.351074 -136.781586
466.624634 -1962.101074 -26.024382
464.217621 -1962.221069 -12.411781
642.142578 -2129.661133 -99.266579
636.629578 -2132.801270 -104.779579
466.662628 -2162.091309 -241.754593
466.632629 -2129.371094 -241.754593
463.142639 -2181.351318 -241.754593
466.247620 -2055.901123 -241.754593
470.802612 -2173.411133 -241.754593
466.909637 -2070.241211 -241.754593
622.327576 -2129.071289 -113.934578
466.682617 -2018.981079 33.835720
463.084625 -1982.701050 33.835720
464.647614 -2104.671143 33.835720
469.664612 -2084.761230 33.835720
471.509613 -2071.161133 -217.314590
471.509613 -2101.051270 -208.481583
471.509613 -2042.880981 -103.314575
471.509613 -2126.121094 -221.989594
471.509613 -2164.541260 -210.639587
471.509613 -2017.851074 -172.266586
471.509613 -2034.591187 -141.394592
471.509613 -1979.441040 -238.634583
471.509613 -2031.651001 -210.704590
471.509613 -2089.931152 -141.646591
471.509613 -2209.751221 -227.451584
471.509613 -2071.691162 -211.246582
471.509613 -2139.271240 -117.471581
471.509613 -2169.931152 -204.474594
471.509613 -2002.521118 -239.901581
471.509613 -2189.791260 -223.789581
471.509613 -2064.301270 -174.826584
471.509613 -2081.501221 -217.211594
471.509613 -1994.611084 -204.039581
471.509613 -2130.081299 -225.246582
471.509613 -2097.931152 -47.206882
471.509613 -2192.571289 -175.974594
471.509613 -2154.471191 -222.169586
471.509613 -2114.531250 -45.811882
471.509613 -2142.751221 -66.474281
471.509613 -2140.461182 -166.231583
471.509613 -2115.391113 -29.079380
471.509613 -2073.121094 -208.009583
471.509613 -2108.501221 -36.551884
471.509613 -2126.791260 -155.784592
471.509613 -2042.241089 -158.854584
471.509613 -2048.721191 -219.154587
471.509613 -2001.371094 -231.351593
471.509613 -2149.431152 -236.749588
471.509613 -2111.471191 -80.301781
471.509613 -1985.561035 -222.009583
471.509613 -2013.951050 -209.376587
471.509613 -2084.151123 -158.726593
471.509613 -2103.101318 -19.879381
471.509613 -2128.851318 -139.814590
471.509613 -2122.581299 -9.701881
471.509613 -2147.831299 -60.609283
471.509613 -2095.231201 -89.021881
471.509613 -2174.831299 -200.116592
471.509613 -2204.231201 -207.446579
471.509613 -2094.221191 -55.829384
471.509613 -2051.631104 -85.576881
471.509613 -2093.761230 -37.386784
471.509613 -2074.261230 -138.126587
471.509613 -2173.661133 -137.629593
471.509613 -2128.371094 -52.859283
471.509613 -2117.911133 -6.796821
471.509613 -2100.231201 -8.384382
471.509613 -2087.291260 -140.599594
471.509613 -1999.611084 -175.146591
471.509613 -2059.671143 -78.374382
471.509613 -2164.191162 -131.794586
471.509613 -2107.571289 -184.554581
471.509613 -2118.561279 -211.881592
471.509613 -2123.921143 -237.171585
471.509613 -2060.711182 -209.864594
471.509613 -2152.971191 -101.479576
471.509613 -2169.611328 -204.996582
471.509613 -2144.341309 -146.796585
471.509613 -2054.281250 -238.754593
471.509613 -2018.941040 -163.091583
471.509613 -2214.741211 -221.911591
471.509613 -2130.501221 -164.526581
471.509613 -2135.461182 -36.459381
471.509613 -2128.711182 -211.249588
471.509613 -2089.421143 -60.616882
471.509613 -2095.671143 -70.606781
471.509613 -2150.371094 -71.601776
471.509613 -2164.101318 -126.666573
471.509613 -2138.221191 -125.584579
471.509613 -2118.321289 -26.684280
471.509613 -2073.991211 -159.019592
471.509613 -2100.081299 -33.489285
471.509613 -2134.961182 -59.704281
471.509613 -2214.301270 -241.531586
471.509613 -2021.921143 -147.914581
471.509613 -2128.181152 -201.249588
471.509613 -1995.701050 -56.729282
471.509613 -2007.111084 -96.866882
471.509613 -2027.741089 -3.581801
471.509613 -2008.061035 -100.389580
471.509613 -2028.111084 -14.831881
471.509613 -1987.401123 -116.356583
471.509613 -2073.261230 -37.574284
471.509613 -2000.551147 -91.266876
471.509613 -1987.541138 -66.366882
471.509613 -1999.081055 -135.211594
471.509613 -1991.161133 25.765718
471.509613 -2026.191040 31.648119
471.509613 -2019.881104 15.570620
471.509613 -2004.981079 -139.934586
471.509613 -2054.691162 5.320609
471.509613 -2022.591064 -46.089283
471.509613 -2064.331299 31.483120
471.509613 -2051.611328 6.163198
471.509613 -2007.311035 -88.794281
471.509613 -2062.021240 15.583220
471.509613 -2028.991089 -8.826881
471.509613 -1985.021118 24.980619
471.509613 -1999.691040 -165.894592
471.509613 -1975.601074 20.563219
471.509613 -1964.421143 -119.791580
471.509613 -1983.811035 -22.519281
471.509613 -2014.591064 -129.979584
471.509613 -2014.731079 -23.556881
471.509613 -2064.991211 -13.194281
471.509613 -2014.951050 -28.821880
471.509613 -1985.131104 -27.191881
471.509613 -2030.001099 -58.484283
471.509613 -1992.741089 -44.246883
471.509613 -2021.181030 -87.876778
471.509613 -2020.401123 -23.226881
471.509613 -1993.691040 6.845629
471.509613 -2013.941040 -11.456781
471.509613 -1968.151123 -183.709579
471.509613 -1979.901123 -161.879593
471.509613 -1983.591064 -90.574379
471.509613 -1989.021118 -13.776781
471.509613 -2037.130981 -20.031881
471.509613 -2001.051147 -127.479576
471.509613 -1962.661133 -31.816782
471.509613 -2094.061279 12.518219
471.509613 -1988.251099 -81.204376
471.509613 -2015.181030 -131.666580
566.014587 -2134.111328 -96.686775
579.582581 -2133.231201 -110.254578
-473.370361 -2070.201172 -77.921776
-473.370361 -2157.531250 -102.759583
-473.370361 -2038.151001 -119.061577
-473.370361 -2068.641113 -172.549591
-473.370361 -2128.011230 -127.591576
-473.370361 -2029.851196 -229.304581
-473.370361 -2056.951172 -229.696579
-473.370361 -2170.491211 -233.924591
-473.370361 -2139.961182 -57.451881
-473.370361 -2094.241211 -201.224594
-473.370361 -2121.101318 -93.011879
-473.370361 -2147.251221 -176.586594
-473.370361 -2059.891113 -146.596588
-473.370361 -2127.831299 -103.879578
-473.370361 -2175.391113 -116.644577
-473.370361 -2092.031250 -143.051590
-473.370361 -2126.541260 -13.776781
-473.370361 -1994.321045 -210.919586
-473.370361 -2161.141113 -141.196579
-473.370361 -2105.791260 -38.164284
-473.370361 -2124.661133 -34.701881
-473.370361 -2077.291260 -121.904579
-473.370361 -2150.571289 -113.916580
-473.370361 -1974.251099 -231.694580
-473.370361 -2166.921143 -217.561584
-473.370361 -2064.391113 -147.989594
-473.370361 -2081.381104 -116.099579
-473.370361 -2160.511230 -130.921585
-473.370361 -2048.061279 -222.116592
-473.370361 -2105.721191 -166.741592
-473.370361 -2038.831177 -228.281586
-473.370361 -2023.851074 -138.749588
-473.370361 -2012.011108 -161.114594
-473.370361 -2050.991211 -167.899582
-473.370361 -2032.130981 -159.839584
-473.370361 -2031.211060 -151.314590
-473.370361 -2144.051270 -222.621582
-473.370361 -2164.951172 -222.999588
-473.370361 -2051.711182 -119.111580
-473.370361 -2085.121094 -156.001587
-473.370361 -1998.481079 -177.394592
-473.370361 -2138.931152 -41.669281
-473.370361 -2192.271240 -177.446579
-473.370361 -2025.691040 -198.746582
-473.370361 -2016.441040 -158.954590
-473.370361 -2109.711182 -108.276581
-473.370361 -2119.451172 -219.329590
-473.370361 -2072.121094 -51.836884
-473.370361 -2045.651001 -182.261581
-473.370361 -2003.021118 -199.141586
-473.370361 -2133.861328 -122.324577
-473.370361 -2149.011230 -128.096588
-473.370361 -2064.411133 -155.531586
-473.370361 -1972.651123 -234.886581
-473.370361 -2086.701172 -87.219376
-473.370361 -2159.841309 -110.371582
-473.370361 -2161.821289 -116.139580
-473.370361 -2176.851318 -229.351593
-473.370361 -2156.271240 -131.074585
-473.370361 -2057.341309 -112.009583
-473.370361 -1982.431030 -218.069580
-473.370361 -2134.851318 -194.644592
-473.370361 -2113.911133 -117.376579
-473.370361 -1991.381104 -239.536591
-473.370361 -2082.301270 -101.709579
-473.370361 -2070.161133 -77.434380
-473.370361 -2005.791138 -218.496582
-473.370361 -2087.341309 -28.951881
-473.370361 -2048.531250 -171.421585
-473.370361 -2031.241089 -134.114594
-473.370361 -2094.061279 -240.879593
-473.370361 -2055.841309 -176.194580
-473.370361 -2177.441162 -158.141586
-473.370361 -2030.640991 -188.929581
-473.370361 -2103.331299 -75.704376
-473.370361 -2017.961060 -229.209579
-473.370361 -2086.661133 -134.049591
-473.370361 -2103.001221 -125.171577
-473.370361 -2127.841309 -90.784279
-473.370361 -2074.901123 -189.859589
-473.370361 -2011.601074 -228.921585
-473.370361 -2175.961182 -133.169586
-473.370361 -2006.711060 -119.276581
-473.370361 -2043.781128 -89.036781
-473.370361 -2054.851318 28.613119
-473.370361 -1983.061035 -152.204590
-473.370361 -1971.681030 -65.141876
-473.370361 -2089.541260 14.585718
-473.370361 -2029.711060 -85.724281
-473.370361 -2008.131104 -27.374281
-473.370361 -1979.331055 -113.774582
-473.370361 -1985.121094 -149.549591
-473.370361 -2071.001221 -36.554382
-473.370361 -1962.751099 -177.549591
-473.370361 -2065.251221 17.970619
-473.370361 -2039.331177 -21.874380
-473.370361 -2038.630981 -76.366882
-473.370361 -2005.021118 -50.676785
-473.370361 -1989.741089 11.368158
-473.370361 -2084.761230 11.228138
-473.370361 -2050.911133 -68.349281
-473.370361 -2008.581055 -98.594582
-473.370361 -1965.711060 -195.836594
-473.370361 -1966.141113 -18.634380
-473.370361 -1986.801147 -186.699585
-473.370361 -2004.541138 -101.854576
-473.370361 -2031.411011 -71.144279
-473.370361 -1978.901123 -16.756882
-473.370361 -2033.880981 -97.641777
-473.370361 -2048.771240 -40.064384
-473.370361 -1966.811035 -223.176590
-473.370361 -2013.581055 -75.691780
-473.370361 -2034.880981 -100.249580
-473.370361 -1993.731079 -129.941589
-473.370361 -1979.901123 -202.319580
-473.370361 -2005.471069 -22.884281
-473.370361 -2030.471069 6.678209
-473.370361 -2007.471069 -41.881882
-473.370361 -1997.701050 21.053219
-473.370361 -1996.601074 -175.699585
-473.370361 -2025.091064 -37.944382
-473.370361 -1976.051147 -83.116882
-473.370361 -2013.011108 28.018219
-473.370361 -1991.101074 31.660620
-473.370361 -2071.401123 17.125618
-473.370361 -2043.441040 -43.914284
-473.370361 -2017.921143 -14.859282
-473.370361 -1997.431030 -75.689377
-473.370361 -2022.221069 -28.186880
563.092590 -2135.621094 -91.791779
-763.185425 -987.311096 170.445419
-757.387390 -1011.141113 191.865417
-681.950378 -1036.021118 174.758408
-750.197388 -992.261108 168.983414
-733.717407 -1004.231079 171.780411
-654.472412 -1050.991089 174.428421
-741.615417 -997.031067 168.973419
-633.555420 -1081.431030 193.235413
-670.987427 -1055.021118 187.653412
-686.395386 -1045.271118 186.480408
-636.150391 -1072.251099 185.490417
-699.970398 -1048.671143 197.438416
-637.052429 -1078.801147 192.553421
-633.162415 -1070.231079 181.808411
-600.135376 -1078.611084 170.678421
-586.045410 -1101.301147 184.965408
-615.575378 -1072.711060 173.995407
-625.315430 -1087.641113 194.740417
-603.347412 -1097.731079 191.715408
-580.060425 -1115.721069 195.815414
-554.360413 -1123.131104 198.248413
-562.882385 -1100.681030 175.765411
-478.790375 -1135.871094 211.313416
-534.975403 -1115.671143 190.868408
-548.815430 -1122.691040 197.835419
-459.712372 -1121.651123 184.103409
-472.322388 -1121.461060 187.413406
-464.800385 -1127.301147 194.995407
-459.000366 -1122.711060 185.675415
-518.962402 -1104.921143 173.258408
-497.815369 -1106.851074 170.400406
-467.352386 -1136.881104 211.693420
-443.700378 -1130.331055 198.783417
-431.107361 -1132.501099 202.863419
-429.275391 -1135.651123 208.173416
-418.815369 -1131.711060 201.993408
-394.045380 -1133.481079 205.843414
-430.080383 -1131.651123 201.483414
-377.135376 -1127.081055 195.790421
-406.240387 -1120.221069 183.308411
-415.850372 -1113.351074 171.493408
-442.960388 -1115.271118 173.718414
-421.042389 -1119.711060 181.905411
-402.837372 -1128.921143 197.928421
599.432617 -2136.871094 -114.961578
579.009583 -2138.861328 -107.869576
-264.615387 -1145.301147 212.523407
-300.682373 -1123.721069 181.888412
-304.065369 -1131.321045 195.053421
-307.512390 -1126.711060 187.875412
-315.967377 -1128.821045 192.635406
-262.200378 -1140.051147 203.420410
-283.915375 -1137.981079 203.170410
-310.657379 -1134.591064 201.473419
-308.722382 -1133.741089 199.770416
-289.947388 -1141.721069 210.305420
-313.757385 -1133.121094 199.483414
-329.057373 -1128.191040 193.523407
-288.747375 -1148.011108 220.598419
-343.310364 -1138.481079 212.780411
-233.418381 -1138.931030 195.830414
-248.134369 -1148.121094 214.425415
-224.717377 -1146.471069 206.458420
-230.643372 -1140.211060 197.355408
-207.078369 -1137.721069 190.173416
-210.882370 -1131.191040 179.293411
-165.482376 -1145.351074 202.890411
-162.969376 -1139.771118 193.603409
-177.510376 -1143.441040 199.705414
-173.254379 -1136.491089 188.128418
-193.770370 -1138.171143 190.935410
-187.700378 -1144.371094 201.270416
-198.911377 -1151.001099 212.313416
-145.449371 -1145.151123 202.563416
-53.811882 -1144.031128 191.163406
-5.175863 -1150.231079 196.423416
-2.555893 -1150.751099 197.018417
-46.910084 -1139.531128 182.945419
-42.565582 -1138.831055 181.330414
-141.122375 -1131.051147 178.648407
-3.965343 -1160.731079 213.798416
-82.597885 -1140.001099 187.448410
-90.599083 -1136.211060 181.975418
-101.234581 -1154.011108 212.743408
-104.505386 -1156.971069 218.025406
-72.255585 -1154.271118 210.160416
-141.044373 -1151.091064 212.033417
-110.030380 -1143.541138 196.210419
-44.180882 -1162.781128 221.413406
-138.143372 -1156.121094 220.110413
-49.188583 -1162.581055 221.598419
-20.998583 -1164.891113 222.505417
1.812707 -1152.361084 199.890411
82.117920 -1151.151123 206.255417
20.909616 -1144.251099 188.358414
53.526917 -1157.431030 213.735413
51.838116 -1153.791138 207.490417
44.130116 -1156.211060 210.718414
22.244516 -1148.661133 195.845413
48.693916 -1149.431030 199.895416
40.244118 -1148.911133 198.143417
64.504120 -1136.851074 180.575409
90.546913 -1135.171143 180.490417
47.171616 -1143.701050 190.185410
101.634613 -1152.141113 209.933411
125.299614 -1149.961060 208.773407
113.273613 -1146.461060 201.685410
115.657616 -1146.081055 201.295410
79.836617 -1135.971069 180.708420
129.343628 -1139.691040 192.083420
152.016617 -1158.451050 224.735413
145.955627 -1131.281128 179.453415
193.574631 -1152.991089 215.628418
159.584625 -1139.911133 193.825409
181.672623 -1153.671143 216.760406
191.748627 -1135.351074 186.228409
190.472626 -1142.421143 198.010406
184.660629 -1146.571045 204.935410
219.128632 -1153.701050 229.000412
340.922638 -1148.621094 228.960419
-820.440430 -2139.911133 -196.951584
-828.777405 -2182.401123 -220.781586
-835.062378 -2176.321289 -222.326584
-852.262390 -2091.891113 -197.354584
-831.222412 -2130.011230 -199.831589
-830.122437 -2164.141113 -213.806580
-831.085388 -2190.091309 -225.621582
-851.222412 -2134.441162 -214.994583
-826.162415 -2172.471191 -214.771591
-859.777405 -2083.101318 -198.546585
-845.302429 -2109.651123 -200.391586
-863.782410 -2093.491211 -205.674591
-840.735413 -2193.961182 -234.391586
-880.730408 -2032.071167 -193.461594
