ply
format ascii 1.0
element vertex 1351
property float x
property float y
property float z
end_header
-55.292255 1828.414062 -302.568695
-58.924255 1853.203979 -294.996704
-49.188255 1859.864014 -292.600708
-34.200256 1858.703979 -292.800690
-20.512257 1858.784058 -292.585693
-287.783875 1914.494019 -264.084717
-294.083862 1926.093994 -256.023712
-288.007874 1917.294067 -262.141693
-259.007874 1938.234009 -249.083710
-316.099884 1915.593994 -262.283691
-129.843857 1967.364014 -231.902710
-151.631851 1955.524048 -241.659698
-164.375854 1942.813965 -250.929718
-203.091858 1921.713989 -263.156708
-190.867859 1926.484009 -260.635712
-217.147858 1905.174072 -272.225708
-223.291855 1905.973999 -271.646698
-266.055878 1890.323975 -278.679718
-248.351852 1901.114014 -273.419708
-267.099884 1881.414062 -282.887695
-268.287872 1876.433960 -285.097717
-293.631866 1870.394043 -287.261719
-295.399872 1856.274048 -292.720703
-305.223877 1844.044067 -296.773712
-136.971863 1900.294067 -276.296692
-189.027863 1884.044067 -282.996704
-160.935852 1897.614014 -277.143707
-191.031860 1885.703979 -282.151703
-200.991852 1881.693970 -283.901703
-221.095856 1882.453979 -283.242706
-81.632256 1950.424072 -245.434692
-76.632256 1960.563965 -237.553711
-96.096260 1942.104004 -251.756714
-73.684258 1945.734009 -248.706696
-109.359856 1943.354004 -250.971710
-124.167854 1946.713989 -248.666718
-129.711853 1935.044067 -256.642700
-108.643860 1934.174072 -257.300690
-146.883850 1931.343994 -258.916718
-160.391861 1931.654053 -258.528717
-155.731857 1924.213989 -263.202698
-200.491852 1909.384033 -270.347717
-177.415863 1911.044067 -269.973694
-173.455856 1913.754028 -268.661713
-242.755859 1884.343994 -281.947693
-246.115860 1874.644043 -286.288696
-246.763855 1866.904053 -289.552704
-440.039886 1884.073975 -268.235718
-409.147858 1901.063965 -263.733704
-397.571869 1901.484009 -265.139709
-471.207886 1840.624023 -282.797699
-451.755859 1859.284058 -278.423706
-432.607880 1857.794067 -282.762695
-416.391876 1873.554077 -277.871704
-192.631851 1959.654053 -236.533691
-212.979858 1949.713989 -243.382690
-220.787857 1943.394043 -247.662689
-237.959854 1927.614014 -257.971710
-189.147858 1948.514038 -245.702698
-239.447861 1925.963989 -259.034698
-289.771881 1905.754028 -269.758698
-291.431885 1903.854004 -270.799713
-295.147858 1893.504028 -276.568695
-313.439880 1875.894043 -284.532715
-328.199860 1880.404053 -282.031708
-336.199860 1855.073975 -292.169708
-360.935883 1830.443970 -299.077698
-366.115875 1831.374023 -298.641693
-345.839874 1884.833984 -278.973694
-358.923859 1874.984009 -283.211700
-381.467865 1855.963989 -289.529694
-397.263885 1843.083984 -292.875702
-410.083862 1830.354004 -295.979706
-421.311859 1805.754028 -302.153717
-425.463867 1794.953979 -304.657715
-327.663879 1899.963989 -271.844696
-319.259857 1895.614014 -274.515717
-343.703857 1881.433960 -280.812714
-367.663879 1854.004028 -291.187714
-368.515869 1841.593994 -295.378693
-387.111877 1834.604004 -296.387695
-388.003876 1827.354004 -298.607697
-399.751862 1815.774048 -301.010712
-400.375885 1892.774048 -270.021698
-452.091858 1865.473999 -275.315704
-451.027863 1876.404053 -269.846710
-477.619873 1838.424072 -282.311707
-123.795860 1982.124023 -217.394714
-135.091858 1971.674072 -227.954712
-169.607849 1954.374023 -242.015717
-173.351852 1944.044067 -249.752716
-205.087860 1932.654053 -256.133698
-191.415863 1934.784058 -255.279694
-250.839859 1912.604004 -266.881714
-240.427856 1917.854004 -264.139709
-285.027863 1895.804077 -275.557709
-262.119873 1896.734009 -275.390717
-294.071869 1884.443970 -281.030701
-318.931885 1859.593994 -291.045715
-349.823883 1830.583984 -299.406708
-232.967850 1811.083984 -306.036713
-220.603851 1815.654053 -305.077698
-206.735855 1812.693970 -305.773712
-193.211853 1819.984009 -304.185699
-184.183853 1821.843994 -303.773712
-205.711853 1833.244019 -300.799713
-210.719864 1827.664062 -302.329712
-236.727859 1823.364014 -303.117706
-249.055862 1814.054077 -305.127716
-260.115875 1820.504028 -303.627716
-268.463867 1802.294067 -307.378693
-278.947876 1801.004028 -307.471710
-295.587860 1801.183960 -307.274719
-15.884257 1883.634033 -282.383698
-35.448257 1889.573975 -280.181702
-57.428257 1899.024048 -276.139709
-58.928257 1901.154053 -275.101715
-75.452255 1900.443970 -275.712708
-109.271858 1905.953979 -273.601715
-115.279854 1896.203979 -278.197693
-129.279861 1896.354004 -278.133698
-150.119858 1885.174072 -282.935699
-142.891861 1892.764038 -279.777710
-162.895859 1885.183960 -282.692719
-199.859863 1874.213989 -287.105713
-213.423859 1865.593994 -290.248718
-247.071854 1851.534058 -294.945709
-239.871857 1863.494019 -290.847717
-264.831879 1844.774048 -297.046692
-287.799866 1840.384033 -298.053711
-296.403870 1839.404053 -298.287689
-317.443878 1822.024048 -302.567719
-331.003876 1828.973999 -300.473694
-334.311859 1828.264038 -300.551697
-367.271881 1805.874023 -304.803711
-368.995880 1808.774048 -304.107697
-391.227875 1799.114014 -305.411713
-409.063873 1798.894043 -304.714691
-421.611877 1784.754028 -307.143707
-344.595886 1808.223999 -305.100708
-324.067871 1798.004028 -307.379700
-310.107880 1819.833984 -303.194702
-294.107880 1814.984009 -304.429718
-263.835876 1839.634033 -298.654694
-262.935883 1828.703979 -301.535706
-232.495850 1851.313965 -295.303711
-242.039856 1831.723999 -301.031708
-217.399857 1847.284058 -296.624695
-202.511856 1854.504028 -294.309692
-182.903854 1852.973999 -295.119690
-163.383850 1854.083984 -294.752716
-145.111862 1842.264038 -298.461700
-151.211853 1830.154053 -302.029694
-140.991852 1830.014038 -302.102692
-166.811859 1817.374023 -305.077698
-512.199829 1861.174072 -260.706696
-512.155884 1861.914062 -260.297699
-502.031860 1852.144043 -269.115692
-478.323883 1870.014038 -266.107697
-485.351868 1864.004028 -267.449707
-481.895874 1836.424072 -282.176697
-481.127869 1854.914062 -273.374695
-511.295868 1839.294067 -272.971710
-514.291870 1831.333984 -276.182709
-527.239868 1824.254028 -276.732697
-538.931824 1809.183960 -281.885712
-547.599854 1805.244019 -282.357697
-610.098816 1804.384033 -269.717712
-588.866821 1818.784058 -263.952698
-583.117859 1825.994019 -260.299713
-567.681824 1836.664062 -257.855713
-541.735840 1775.804077 -298.224701
-441.107880 1850.563965 -284.392700
-465.059875 1827.723999 -289.494690
-471.471863 1824.193970 -289.735718
-488.131866 1815.614014 -290.007690
-494.935883 1815.284058 -288.767700
-513.223877 1809.754028 -287.419708
-524.035828 1806.254028 -286.829712
-536.831848 1794.703979 -289.993713
-607.573853 1784.453979 -284.936707
-582.023865 1786.904053 -287.361694
-579.274841 1783.804077 -289.582703
-549.615845 1790.313965 -290.173706
-553.843811 1780.774048 -294.388702
-469.887878 1814.764038 -293.595703
-458.747864 1826.604004 -291.030701
-536.255859 1751.394043 -307.291718
-573.635864 1730.313965 -309.164703
-594.042847 1731.193970 -308.032715
-563.301819 1747.953979 -306.185699
-540.451843 1771.174072 -300.338715
-502.751862 1785.193970 -299.558716
-474.695862 1793.754028 -300.208710
-465.719879 1804.223999 -297.967712
-462.883881 1808.764038 -296.886719
-449.119873 1828.494019 -291.900696
-443.799866 1835.384033 -290.207703
-421.075867 1848.943970 -288.195709
-417.647858 1857.193970 -285.235718
-409.527863 1869.443970 -280.869690
-390.351868 1889.953979 -272.910706
-372.371857 1905.174072 -265.781708
-353.231873 1921.333984 -256.328705
-339.823883 1921.524048 -257.124695
-331.211884 1921.134033 -257.947693
-391.615875 1872.504028 -281.687714
-404.843872 1860.794067 -285.228699
-408.975861 1841.664062 -292.303711
-421.923859 1837.234009 -292.375702
-425.991882 1820.313965 -297.546692
-443.567871 1812.943970 -297.995697
-432.259857 1805.254028 -301.471710
-457.987885 1783.473999 -305.055695
-465.595886 1774.994019 -306.891693
-507.079865 1765.304077 -305.873718
-638.023865 1765.254028 -290.960693
-628.773865 1765.313965 -293.110718
-614.131836 1760.674072 -297.527710
-614.394836 1753.014038 -300.772705
-618.078857 1752.014038 -300.555695
-675.117859 1761.034058 -277.283691
-661.964844 1754.933960 -287.644714
-664.734863 1750.394043 -288.479706
-635.631836 1707.203979 -307.463715
-685.973816 1755.924072 -272.358704
-678.438843 1757.203979 -277.241699
-668.139832 1731.034058 -293.603699
-661.900818 1718.354004 -298.929718
-635.373840 1698.463989 -308.245697
-640.920837 1690.563965 -307.922699
-622.584839 1676.364014 -311.625702
-645.336853 1768.154053 -287.302704
-644.677856 1745.313965 -297.817719
-613.507812 1709.904053 -309.416718
-614.989868 1704.924072 -309.851715
-605.896851 1699.063965 -310.912689
-766.617859 1630.093994 -223.335693
-746.509827 1630.674072 -253.237701
-737.393860 1662.774048 -256.225708
-776.867859 1606.953979 -210.535706
-776.930847 1559.774048 -226.453705
-782.681824 1572.073975 -209.475708
-789.753845 1560.034058 -186.683716
-759.078857 1631.514038 -236.144714
-761.638855 1624.034058 -234.184692
-772.015869 1590.634033 -227.711700
-767.058838 1589.473999 -236.439697
-789.838867 1543.534058 -191.455719
-792.598816 1543.654053 -175.591705
-787.453857 1510.664062 -207.803711
-752.586853 1600.953979 -252.915710
-750.831848 1614.473999 -251.971710
-750.354858 1620.004028 -251.200714
-740.494812 1702.744019 -233.337708
-739.396851 1698.713989 -237.859711
-746.568848 1681.984009 -235.352692
-726.169861 1696.384033 -259.116699
-723.039856 1676.664062 -267.824707
-722.310852 1672.134033 -269.681702
-714.979858 1678.563965 -275.223694
-721.135864 1656.654053 -273.309692
-720.311829 1650.414062 -275.036713
-684.297852 1646.424072 -298.591705
-721.054871 1587.614014 -284.294708
-712.919861 1619.154053 -284.819702
-713.584839 1621.764038 -284.007690
-725.145813 1614.203979 -276.746704
-727.883850 1618.164062 -273.717712
-739.036865 1608.054077 -265.709717
-725.210815 1589.304077 -280.884705
-733.049866 1577.154053 -277.158691
-734.080872 1588.093994 -274.063690
-768.452820 1576.343994 -237.740692
-786.655823 1581.813965 -190.131714
-784.209839 1591.734009 -193.927704
-766.888855 1637.443970 -219.020691
-758.247864 1644.174072 -232.806702
-747.373840 1648.254028 -247.437714
-761.162842 1589.573975 -245.025696
-748.710815 1600.024048 -257.454712
-736.503845 1619.354004 -266.023712
-732.311829 1617.723999 -269.875702
-755.776855 1518.544067 -265.681702
-764.049866 1522.443970 -254.577698
-778.745850 1531.024048 -228.408691
-783.868835 1509.124023 -218.789703
-665.527832 1616.453979 -309.130707
-689.594849 1615.534058 -298.968689
-692.488831 1630.374023 -295.969696
-669.043823 1599.614014 -309.466705
-675.881836 1606.414062 -306.116699
-661.822815 1573.083984 -314.437714
-678.892822 1564.674072 -309.947693
-673.858826 1560.784058 -311.997711
-750.335815 1574.994019 -261.399719
-726.596863 1551.593994 -287.250702
-752.936829 1544.323975 -264.865692
-759.150818 1536.924072 -258.951691
-758.727844 1548.563965 -257.247711
-766.667847 1553.833984 -245.330719
-788.276855 1525.994019 -202.943695
-790.764832 1517.813965 -193.031708
-711.097839 1554.164062 -297.065704
-698.319824 1548.213989 -304.696716
-685.718811 1545.953979 -309.999695
-750.807861 1517.313965 -271.545715
-748.027832 1531.093994 -272.225708
-741.470825 1532.604004 -278.666718
-735.071838 1529.593994 -284.680695
-723.515869 1534.193970 -292.746704
-710.487854 1536.294067 -300.451691
-677.322815 1536.754028 -313.536713
-676.873840 1507.443970 -315.826691
-700.710815 1521.624023 -307.178711
-631.916870 1918.554077 -101.279701
-611.982849 1931.624023 -97.999702
-620.680847 1924.404053 -110.331703
-624.928833 1921.304077 -112.455696
-655.807861 1899.104004 -113.583702
-656.499817 1897.494019 -118.899696
-673.811829 1884.524048 -107.879692
-679.612854 1877.294067 -115.495689
-685.246826 1871.813965 -113.495689
-603.324829 1934.654053 -109.043694
-680.592834 1856.063965 -161.351715
-679.257812 1856.524048 -163.515717
-697.859863 1842.534058 -138.383698
-687.636841 1871.193970 -99.043694
-707.849854 1838.924072 -87.999702
-709.944824 1835.284058 -86.499702
-726.055847 1804.813965 -92.059700
-727.363831 1801.563965 -96.947701
-590.199829 1871.744019 -224.638702
-579.315857 1867.914062 -232.001709
-613.598816 1812.933960 -261.926697
-597.963867 1826.984009 -255.507690
-594.344849 1836.164062 -249.675690
-590.719849 1840.604004 -247.741699
-585.785828 1849.044067 -243.611694
-575.267822 1937.284058 -150.191711
-590.746826 1928.244019 -153.559692
-626.862854 1899.154053 -169.659698
-609.460815 1908.274048 -172.755707
-646.615845 1882.004028 -173.943695
-660.474854 1861.514038 -185.247711
-675.262817 1839.213989 -194.071716
-660.559814 1833.124023 -217.831696
-716.474854 1787.294067 -187.223694
-720.731812 1785.343994 -177.943695
-667.887817 1829.154053 -215.134705
-673.289856 1819.083984 -221.169708
-661.747864 1815.604004 -235.962708
-630.983826 1855.833984 -216.993713
-615.257812 1838.593994 -240.081696
-637.731812 1812.244019 -253.822693
-712.841858 1769.254028 -223.384705
-716.153870 1779.924072 -199.951691
-709.623840 1758.833984 -241.981689
-700.483826 1760.004028 -254.125702
-694.512817 1756.343994 -264.240692
-693.586853 1749.563965 -269.489716
-648.960815 1690.443970 -306.479706
-705.853821 1781.174072 -221.884705
-693.841858 1789.343994 -231.696716
-700.779846 1771.933960 -242.106689
-692.701843 1776.494019 -248.071716
-688.495850 1770.634033 -258.554718
-674.210815 1771.963989 -269.937714
-656.766846 1774.634033 -278.346710
-636.149841 1774.294067 -286.105713
-598.121826 1768.914062 -295.355713
-582.962830 1773.614014 -294.680695
-558.763855 1775.463989 -296.224701
-571.876831 1760.323975 -301.617706
-567.119812 1759.813965 -302.096710
-595.989868 1736.424072 -306.796692
-605.523865 1722.514038 -308.684692
-677.896851 1816.654053 -218.872711
-678.048828 1806.384033 -231.113708
-669.140869 1802.213989 -244.701691
-675.921814 1791.044067 -250.946716
-593.327820 1853.024048 -237.649719
-621.567871 1810.144043 -261.609711
-625.983826 1807.933960 -262.070709
-623.027832 1798.654053 -271.041718
-773.504822 1670.994019 -133.291687
-773.105835 1664.943970 -155.223694
-774.607849 1657.894043 -160.243713
-736.968811 1723.884033 -222.761719
-739.706848 1728.254028 -210.551697
-736.534851 1741.514038 -202.067719
-739.047852 1748.654053 -183.211700
-740.115845 1753.244019 -171.971710
-743.715820 1759.274048 -140.711700
-751.187866 1754.573975 -92.727699
-746.892822 1763.984009 -93.951698
-749.020813 1760.254028 -83.583702
-744.329834 1769.784058 -91.159691
-720.905823 1739.573975 -240.863708
-713.825867 1725.323975 -261.330719
-709.174866 1726.093994 -266.691711
-702.513855 1707.323975 -279.193695
-697.699829 1689.433960 -286.502716
-671.663818 1658.813965 -302.709717
-657.064819 1640.264038 -309.382690
-743.468811 1772.484009 -79.871696
-737.820862 1780.124023 -106.331703
-739.857849 1773.193970 -119.611702
-736.974854 1770.443970 -146.419708
-739.967834 1763.374023 -150.655701
-731.458862 1760.874023 -187.487701
-736.051819 1752.614014 -186.607697
-733.954834 1743.154053 -207.119690
-723.654846 1735.104004 -239.836700
-724.693848 1717.723999 -251.153717
-704.062866 1675.014038 -284.187714
-690.283813 1657.213989 -294.525696
-690.097839 1642.693970 -296.115692
-701.750854 1608.674072 -293.248718
-705.296814 1593.093994 -293.592712
-690.126831 1604.813965 -299.978699
-655.999817 1628.534058 -310.849701
-646.778870 1630.864014 -312.939697
-754.870850 1704.874023 -193.563690
-763.707825 1720.734009 -85.183693
-757.514832 1730.213989 -133.435699
-760.896851 1720.093994 -134.143707
-759.264832 1716.984009 -152.159698
-756.443848 1719.674072 -163.635712
-754.905823 1714.034058 -179.411713
-776.133850 1645.284058 -177.211700
-771.007812 1656.813965 -189.863708
-773.470825 1653.764038 -179.559692
-764.347839 1690.973999 -171.211700
-763.292847 1700.404053 -159.987701
-767.225830 1698.004028 -133.035706
-765.952820 1707.004028 -120.607689
-767.190857 1706.563965 -103.859703
-768.132812 1704.823975 -92.087700
-768.233826 1705.054077 -84.559700
-779.125854 1641.973999 -139.055695
-780.908813 1635.914062 -119.999702
-776.798828 1658.063965 -112.319695
-778.456848 1649.784058 -105.043694
-778.259827 1652.404053 -96.611702
-778.420837 1653.973999 -87.107689
-779.639832 1638.953979 -151.227692
-786.419861 1609.093994 -126.619698
-783.675842 1622.274048 -124.011696
-788.926819 1596.563965 -120.671700
-789.295837 1594.414062 -108.871696
-790.696838 1586.973999 -126.207695
-794.071838 1563.904053 -92.631691
-794.789856 1558.213989 -115.367699
-795.989868 1547.943970 -113.075691
-794.790833 1556.063965 -129.495697
-793.143860 1567.394043 -145.931702
-790.692871 1586.794067 -132.415710
-789.263855 1591.093994 -156.935699
-789.331848 1594.614014 -136.407684
-782.795837 1624.294067 -155.819702
-778.065857 1643.754028 -160.567719
-770.208862 1680.744019 -146.963684
-768.970825 1686.734009 -145.311707
-768.811829 1689.693970 -138.587708
-771.037842 1688.644043 -110.047691
-772.261841 1685.973999 -96.755699
-799.377869 1502.014038 -122.163704
-799.629822 1496.073975 -120.763695
-800.800842 1482.514038 -99.935692
-749.751831 1712.134033 -201.143707
-761.302856 1673.213989 -208.287689
-770.835815 1651.254028 -196.551697
-773.793823 1640.453979 -197.087708
-795.519836 1546.134033 -143.303711
-799.034851 1510.933960 -92.087700
-798.121826 1524.083984 -96.063698
-799.187866 1510.054077 -109.847694
-799.164856 1506.384033 -121.663704
-795.957825 1544.614014 -130.083710
-795.910828 1542.674072 -140.207703
-796.519836 1530.734009 -141.051697
-796.143860 1530.144043 -146.963684
-797.625854 1503.443970 -144.783691
-797.298828 1502.494019 -148.699707
-714.038818 1567.864014 -292.659698
-720.478821 1568.364014 -288.393707
-739.678833 1585.744019 -269.598694
-765.406860 1560.514038 -245.669708
-773.112854 1558.963989 -234.069702
-780.589844 1543.914062 -222.508698
-786.792847 1536.024048 -206.243713
-789.094849 1527.734009 -199.171692
-792.265869 1537.063965 -181.183716
-793.717834 1547.843994 -164.051697
-788.059814 1580.854004 -183.011719
-785.399841 1592.433960 -188.095703
-779.774841 1620.244019 -190.939697
-774.336853 1635.384033 -199.059692
-768.555847 1643.313965 -211.675690
-762.378845 1658.494019 -217.203705
-761.619812 1669.973999 -210.291718
-752.543823 1679.394043 -225.532715
-748.397827 1691.254028 -225.515717
-744.890869 1723.664062 -201.031708
-748.099854 1730.183960 -180.707703
-750.740845 1735.544067 -160.251709
-754.985840 1734.304077 -140.287689
-755.671814 1737.544067 -122.975700
-753.816833 1744.494019 -115.595695
-753.537842 1745.664062 -112.311699
-753.832825 1746.943970 -97.627693
-702.311829 1845.953979 -105.243690
-709.649841 1834.144043 -97.415703
-717.059814 1818.354004 -106.691704
-720.760864 1813.223999 -99.375694
-727.897827 1796.634033 -112.907692
-720.303833 1804.463989 -134.687683
-724.615845 1789.843994 -154.471710
-730.124817 1784.404053 -141.887695
-732.802856 1775.963989 -153.243713
-730.482849 1776.674072 -160.435699
-726.798828 1775.973999 -175.783691
-716.075867 1753.073975 -236.405701
-712.492859 1755.713989 -240.221710
-711.151855 1750.703979 -247.216705
-716.460815 1741.203979 -247.370697
-687.965820 1703.014038 -290.081696
-681.341858 1698.554077 -294.042694
-674.934814 1693.134033 -297.939697
-672.473816 1684.114014 -299.813690
-644.667847 1658.203979 -310.461700
-650.801819 1650.534058 -309.952698
-639.476868 1650.593994 -312.155701
-143.503860 2022.463989 -78.191704
-203.363861 2020.524048 -96.299690
-181.239853 2021.274048 -86.827690
-170.803864 2021.604004 -84.327690
-210.499863 2020.294067 -98.139702
-225.327850 2019.833984 -100.691704
-239.747864 2019.424072 -90.859703
-276.983887 2017.524048 -94.031700
-269.059875 2017.884033 -87.015694
-276.695862 2017.213989 -77.443703
-248.919861 2017.494019 -128.423706
-695.433838 1833.933960 -163.043701
-690.349854 1847.833984 -152.283691
-666.343811 1878.083984 -150.267700
-636.493835 1901.874023 -152.087708
-626.557861 1908.354004 -151.899689
-614.825867 1918.313965 -145.687683
-573.319824 1946.183960 -125.467690
-561.195862 1953.854004 -115.847694
-550.011841 1959.364014 -111.791695
-542.535828 1962.884033 -108.867699
-519.875854 1970.854004 -110.763695
-509.603882 1974.354004 -110.035698
-491.523865 1979.723999 -111.603691
-475.307861 1984.994019 -107.359703
-453.627869 1991.583984 -101.035698
-413.671875 2000.644043 -94.411690
-687.730835 1859.144043 -137.371704
-681.642822 1866.054077 -140.687683
-649.757812 1897.213989 -139.267700
-641.757812 1901.394043 -143.963684
-636.889832 1904.734009 -144.659698
-625.113831 1913.583984 -140.899689
-620.074829 1920.354004 -129.499695
-533.803833 1967.644043 -100.603691
-491.535858 1982.644043 -95.391701
-218.435852 2018.994019 -120.259697
-233.251862 2017.984009 -127.127693
-254.235855 2017.933960 -122.627693
-263.863861 2018.114014 -115.283699
-287.447876 2016.703979 -117.827690
-311.215881 2015.404053 -110.203697
-335.639862 2012.364014 -95.711693
-340.975861 2005.774048 -147.891693
-330.283875 2009.823975 -139.771698
-337.491882 2011.864014 -114.579689
-494.659882 1971.463989 -139.139709
-530.599854 1953.573975 -154.995697
-544.343811 1945.843994 -160.795715
-574.337830 1924.104004 -177.227692
-584.991821 1919.654053 -175.663696
-636.061829 1870.693970 -198.587708
-643.510864 1866.294067 -196.899719
-648.458862 1861.843994 -197.627716
-656.049866 1803.933960 -252.525696
-654.231812 1817.644043 -239.350708
-641.015869 1834.894043 -230.447693
-632.452820 1844.854004 -226.193695
-615.537842 1867.933960 -215.149719
-580.075867 1900.234009 -203.979706
-581.937866 1901.604004 -201.443695
-563.401855 1915.604004 -196.079712
-547.267822 1928.864014 -188.243713
-544.887817 1934.973999 -180.787689
-508.011871 1956.073975 -166.747711
-476.195862 1970.073975 -156.443695
-537.459839 1953.973999 -147.627686
-562.029846 1939.014038 -159.799713
-600.980835 1913.884033 -171.607697
-591.800842 1915.354004 -176.823700
-605.197815 1906.333984 -179.647705
-640.361816 1875.703979 -189.075714
-663.079834 1848.713989 -197.691711
-405.059875 1987.764038 -155.911713
-423.527863 1982.433960 -158.347717
-363.051880 1996.723999 -159.567719
-398.163879 2001.884033 -106.447701
-426.667877 1995.284058 -112.707695
-453.551880 1987.203979 -122.011696
-485.715881 1979.924072 -117.967690
-482.831879 1978.973999 -124.787697
-537.895813 1961.843994 -121.899696
-532.911865 1961.104004 -131.607697
-577.009827 1940.973999 -137.843689
-636.646851 1896.054077 -163.427704
-655.685852 1881.384033 -162.767700
-666.079834 1865.664062 -172.091705
-106.251854 2020.544067 -122.967690
-77.820259 2022.424072 -109.979698
-130.531860 2018.764038 -135.995697
-67.824257 2022.044067 -120.175697
-36.944256 2023.424072 -110.851692
-44.752258 2022.234009 -124.403694
-43.864258 2021.953979 -127.175697
-12.088207 2024.544067 -84.335701
-10.716268 2024.554077 -87.539696
-97.060257 2022.024048 -111.051689
-106.747856 2021.473999 -115.883690
-106.291855 2021.164062 -118.119698
-160.467850 2018.504028 -134.067688
-275.103882 2017.744019 -99.707695
-261.875885 2018.524048 -103.855690
-250.951859 2019.024048 -103.171700
-240.727859 2018.943970 -114.515694
-204.847855 2020.223999 -104.063698
-179.379852 2021.044067 -97.311699
-180.287857 2020.823975 -103.467690
-154.547852 2021.823975 -94.063698
-109.955856 2022.854004 -93.031700
-106.447853 2022.754028 -96.583702
-133.319855 2021.083984 -114.923698
-114.999855 2022.144043 -104.659691
-158.115860 2020.473999 -117.151695
-204.807861 2016.573975 -140.163696
-199.735855 2016.473999 -141.223694
-231.271851 2005.374023 -173.895691
-194.651855 2008.193970 -170.643707
-187.427856 2011.073975 -163.079712
-146.351852 2012.443970 -162.343689
-99.152260 2017.563965 -146.323700
-227.663864 1998.473999 -187.807709
-185.783859 2002.174072 -184.563690
-190.335861 2004.343994 -179.827698
-155.567856 2007.973999 -174.215698
-147.419861 2008.343994 -173.903717
-136.259857 2011.994019 -164.555695
-98.712257 2013.794067 -161.643707
-76.728256 2015.914062 -156.583710
-63.772255 2017.984009 -149.043701
-223.151855 1990.534058 -200.471710
-208.383850 1991.894043 -200.079712
-195.199860 1998.014038 -191.527710
-176.827850 2002.544067 -184.579712
-140.083862 2006.624023 -178.375702
-129.723862 2005.054077 -182.539703
-109.387856 2008.424072 -176.331696
-76.628258 2013.943970 -163.371704
-55.168255 2013.703979 -166.427704
-54.672256 2016.504028 -156.975708
-22.568256 2014.654053 -167.079712
-42.024258 2012.614014 -171.139709
-52.612255 2011.813965 -172.275696
-75.448257 2009.583984 -175.867706
-88.668259 2006.264038 -182.559692
-115.107857 2005.843994 -181.839691
-152.031860 2000.183960 -190.651703
-165.727859 1994.593994 -199.067719
-173.563858 1995.754028 -196.743713
-192.987854 1989.183960 -204.951691
-223.211853 1983.563965 -209.635712
-219.587860 1973.114014 -221.757690
-204.175858 1983.734009 -211.211700
-170.443863 1990.294067 -205.103699
-121.455856 1995.544067 -199.991699
-95.296257 1998.963989 -195.659698
-75.476257 2000.034058 -194.899719
-62.392258 2005.264038 -186.095703
-56.932255 2003.343994 -190.063690
-43.932255 2007.644043 -182.811707
-295.923859 2012.234009 -145.783691
-300.551880 2008.164062 -157.711700
-317.627869 2012.624023 -133.911682
-324.567871 2010.104004 -142.555695
-324.235870 2008.544067 -148.183685
-323.411865 2002.973999 -163.847717
-312.003876 2003.943970 -165.255707
-317.647858 1994.524048 -181.319702
-287.219879 2014.223999 -139.351685
-288.483887 2012.213989 -148.071686
-286.239868 2004.304077 -169.771698
-291.975861 2004.244019 -168.979706
-307.123871 1997.304077 -178.883698
-378.723877 1983.054077 -180.535706
-363.227875 1986.313965 -181.055695
-385.327881 1980.624023 -182.303711
-466.591858 1959.654053 -183.955719
-431.147858 1975.734009 -170.123718
-428.155884 1975.164062 -172.795715
-403.543884 1984.174072 -166.151703
-386.007874 1986.354004 -170.559692
-499.559875 1940.784058 -197.267700
-461.555878 1959.713989 -186.423706
-455.323883 1956.864014 -194.431702
-448.163879 1963.644043 -186.099701
-424.091858 1968.804077 -187.711700
-406.063873 1974.744019 -184.619690
-403.927887 1995.433960 -131.607697
-409.879883 1991.323975 -141.603699
-447.163879 1981.894043 -144.483704
-457.799866 1974.374023 -158.287689
-480.943878 1966.384033 -162.255707
-473.075867 1965.864014 -167.991699
-499.579865 1954.054077 -175.939697
-527.967834 1938.494019 -185.151703
-535.831848 1926.364014 -197.971710
-553.387817 1916.654053 -200.339691
-553.227844 1910.044067 -207.607697
-585.403870 1890.244019 -211.037689
-573.611816 1893.874023 -213.578705
-604.983826 1864.354004 -223.701691
-616.465820 1851.813965 -228.513702
-635.941833 1831.573975 -236.515717
-643.451843 1822.604004 -241.011719
-659.582825 1794.604004 -259.691711
-654.800842 1788.864014 -267.940704
-524.347839 1921.443970 -209.435699
-483.803864 1939.874023 -206.099701
-470.375885 1947.994019 -200.915710
-448.411865 1953.244019 -203.187714
-423.027863 1963.044067 -198.107697
-384.423859 1978.453979 -187.083710
-368.163879 1977.823975 -193.711700
-283.655884 1984.473999 -201.215698
-508.447876 1916.264038 -221.870697
-287.775879 1965.223999 -222.799713
-277.755859 1966.433960 -222.744690
-333.327881 1957.453979 -225.653717
-344.115875 1955.164062 -226.889709
-352.219879 1947.014038 -234.266693
-356.699860 1954.703979 -225.898712
-383.947876 1939.484009 -237.485718
-402.623871 1939.813965 -233.916718
-427.071869 1930.823975 -236.760712
-453.787872 1917.004028 -241.420715
-477.479858 1904.683960 -243.662689
-553.579834 1888.884033 -226.680695
-547.959839 1880.874023 -235.104706
-534.535828 1886.414062 -236.411713
-519.303833 1894.794067 -236.143707
-361.595886 1941.544067 -238.671692
-369.859863 1933.744019 -244.697693
-406.387878 1922.364014 -248.734711
-416.755859 1924.073975 -245.194702
-443.699860 1908.864014 -250.785706
-452.231873 1907.304077 -249.772705
-464.295868 1904.044067 -248.462708
-477.983887 1896.364014 -249.770691
-532.987854 1909.134033 -218.304718
-517.875854 1920.774048 -213.093689
-518.243835 1916.504028 -217.316711
-502.131866 1925.304077 -215.451691
-478.179871 1933.973999 -215.851715
-442.203857 1949.274048 -211.209717
-433.155884 1950.234009 -213.117706
-381.379883 1967.114014 -205.995697
-372.191864 1970.614014 -203.383698
-359.547882 1973.963989 -201.699707
-36.020256 2019.144043 -148.363708
-63.564255 2020.234009 -136.387695
-70.800255 2019.624023 -138.947693
-121.247856 2018.823975 -137.223694
-116.499855 2017.943970 -142.591705
-176.919861 2015.854004 -146.767700
-157.231857 2015.223999 -151.195709
-194.347855 2013.433960 -154.727692
-201.823853 2011.164062 -161.575714
-235.071854 2008.244019 -166.527710
-244.051849 2005.154053 -173.243713
-258.351868 2002.884033 -176.243713
-266.707886 1995.894043 -187.555695
-276.547882 1991.433960 -193.211700
-263.003876 1991.394043 -194.947693
-249.199860 1983.843994 -206.623718
-252.371857 1978.604004 -212.471710
-267.943878 1972.473999 -217.522705
-256.063873 1969.874023 -221.597717
-256.707855 1963.463989 -227.903717
-402.039886 1998.524048 -120.239693
-418.567871 1992.583984 -130.779694
-452.887878 1986.593994 -125.071693
-460.763885 1983.764038 -128.531708
-454.543884 1981.504028 -140.267700
-487.491882 1973.254028 -139.791687
-494.231873 1969.193970 -145.955688
-520.427856 1956.473999 -157.123718
-539.159851 1944.794067 -166.935699
-565.751831 1924.823975 -182.279694
-596.951843 1901.034058 -193.099701
-587.407837 1902.664062 -196.935699
-610.435852 1888.004028 -198.419708
-636.346863 1862.093994 -207.239716
-652.759827 1854.573975 -201.619690
-667.137817 1836.264038 -207.855713
-523.971863 1871.894043 -250.257690
-526.751831 1871.254028 -249.662689
-516.735840 1878.654053 -248.385712
-526.563843 1885.144043 -240.427704
-509.479858 1884.963989 -246.585693
-502.503876 1907.624023 -232.129700
-490.171875 1917.984009 -227.732697
-470.783875 1933.164062 -219.949707
-415.007874 1952.804077 -215.849701
-402.695862 1955.394043 -215.987701
-380.695862 1965.443970 -208.567719
-374.579865 1965.604004 -209.651703
-353.047882 1968.813965 -209.787689
-342.619873 1971.554077 -208.339691
-345.075867 1981.963989 -193.759705
-341.871857 1987.124023 -186.619690
-343.623871 1989.953979 -181.667694
-331.327881 1998.044067 -171.079712
-342.831879 1997.323975 -168.067719
-349.651886 2001.104004 -156.287689
-359.151886 2001.304077 -149.263702
-348.999878 2008.734009 -125.451698
-30.000257 1957.563965 -238.141693
-68.880257 1964.573975 -234.193695
-41.208256 1966.573975 -231.448700
-80.172256 1966.604004 -232.549713
-59.064255 1978.593994 -221.067719
-109.859856 1970.664062 -229.133698
-80.180260 1985.624023 -213.821716
-69.344254 1986.114014 -213.400696
-119.851860 1985.154053 -213.963715
-133.603851 1987.963989 -209.859711
-190.427856 1974.854004 -222.154694
-204.103851 1967.624023 -228.425690
-208.675858 1970.854004 -224.759705
-236.279861 1965.813965 -227.423706
-247.603851 1960.784058 -230.989716
-261.871857 1941.044067 -246.935699
-270.759857 1938.784058 -248.119690
-287.947876 1954.073975 -233.858704
-318.359863 1931.843994 -250.293701
-312.931885 1942.114014 -242.156708
-320.307861 1930.044067 -251.653717
-345.767883 1938.744019 -242.778717
-365.967865 1931.144043 -247.318695
-399.347870 1913.294067 -256.900696
-421.347870 1912.223999 -253.914703
-446.319885 1893.114014 -261.340698
-463.411865 1896.754028 -254.084717
-491.727875 1877.823975 -257.450714
-477.815857 1872.063965 -265.063690
-480.347870 1905.644043 -241.929718
-477.167877 1917.784058 -232.669708
-458.579865 1922.864014 -234.788696
-451.879883 1930.854004 -229.150696
-419.511871 1944.703979 -224.288696
-360.127869 1959.463989 -219.935699
-347.611877 1965.914062 -214.463715
-322.295868 1976.754028 -205.167694
-300.863861 1980.073975 -203.999695
-314.743866 1983.924072 -197.515717
-241.563858 2008.674072 -164.731689
-256.443878 2013.254028 -149.403687
-318.615875 2014.554077 -111.391701
-343.447876 2011.274048 -105.171700
-357.479858 2009.223999 -102.691704
-382.795868 2003.644043 -112.491692
-392.011871 1999.833984 -123.659691
-393.379883 1997.424072 -132.695709
-368.875885 2000.713989 -142.823700
-386.151886 1995.183960 -148.171692
-444.595886 1977.994019 -156.791718
-449.107880 1973.223999 -165.759705
-503.107880 1945.843994 -188.015717
-508.699860 1939.004028 -195.335693
-525.459839 1926.674072 -202.843689
-539.183838 1913.774048 -210.875702
-539.667847 1911.193970 -213.154694
-558.919861 1893.573975 -220.846710
-552.923828 1881.994019 -232.249695
-556.575867 1879.794067 -232.419708
-569.226868 1866.953979 -236.897705
-547.003845 1860.884033 -249.072693
-552.823853 1868.264038 -242.166718
-551.831848 1850.274048 -254.378693
-546.091858 1853.943970 -253.986694
-528.491821 1839.894043 -267.731689
-551.427856 1846.134033 -256.985718
-529.771851 1835.354004 -270.100708
-533.951843 1825.833984 -274.276703
-552.239868 1813.443970 -276.584717
-591.781860 1802.294067 -275.368713
-605.886841 1798.124023 -275.583710
-612.686829 1796.024048 -275.757690
-619.375854 1790.044067 -278.762695
-649.379822 1784.024048 -274.410706
-660.161865 1786.943970 -266.587708
-672.154846 1782.004028 -263.215698
-684.755859 1780.794067 -252.885712
-683.242859 1791.774048 -242.475708
-687.695862 1789.854004 -239.336700
-685.329834 1797.874023 -232.698700
-690.501831 1793.104004 -231.748718
-697.907837 1802.213989 -207.375702
-696.249817 1823.943970 -177.839691
-701.547852 1821.524048 -168.287689
-707.939819 1817.034058 -156.403717
-714.005859 1813.093994 -141.607697
-701.798828 1837.433960 -134.419708
-711.707825 1820.924072 -130.911682
-703.602844 1834.614014 -133.551697
-708.986816 1829.774048 -118.659691
-703.316833 1841.154053 -115.787697
-695.244812 1853.284058 -123.643700
-693.613831 1857.593994 -119.883690
-692.454834 1864.713989 -100.155693
-259.843872 1950.484009 221.496307
-232.807861 1948.104004 221.544312
-222.083862 1948.164062 221.540314
-130.243866 1959.463989 221.312302
-113.799858 1949.723999 221.508301
-60.724258 1960.134033 221.300293
-40.504257 1951.134033 221.480301
-34.984257 1956.193970 221.380310
-24.648256 1949.424072 221.516296
0.507733 1955.004028 221.404297
54.643742 1959.063965 221.320312
88.355743 1954.953979 221.404297
112.060143 1947.723999 221.552307
115.500145 1950.024048 221.504303
130.272141 1950.953979 221.484314
164.456146 1953.774048 221.428314
192.680145 1954.443970 221.416306
213.736145 1950.544067 221.492310
-156.743851 1957.154053 99.615913
-108.223854 1959.473999 100.947884
-124.995857 1958.854004 99.051880
-123.363853 1959.794067 91.763901
262.696136 1947.114014 214.180298
272.728119 1947.034058 215.004303
280.992126 1946.933960 216.096313
268.036133 1948.044067 199.691895
244.524139 1947.093994 215.172302
243.044144 1948.524048 192.351898
229.808136 1947.333984 211.752304
237.224136 1949.164062 180.787903
218.884140 1947.494019 208.988312
227.852142 1948.644043 189.219910
209.720139 1947.343994 211.280304
214.840149 1948.534058 189.023895
206.856140 1948.114014 196.295898
-115.627853 1950.453979 183.623901
-98.664253 1950.374023 187.135895
-152.967850 1949.614014 185.611908
-145.687851 1950.573975 177.003906
-150.151855 1950.734009 173.843903
-155.159851 1951.104004 167.135895
-187.947861 1949.644043 173.743896
-178.675858 1947.583984 208.384308
-189.623856 1950.433960 161.955902
-178.003860 1950.274048 169.371902
-168.443863 1949.914062 176.587906
-203.231857 1947.723999 201.515900
-213.707855 1948.754028 177.987900
-207.167862 1946.854004 221.020294
-195.507858 1949.134033 178.219910
-187.831863 1947.713989 203.876312
-211.551849 1949.254028 168.595901
-228.511856 1948.583984 181.523895
-231.027863 1948.414062 185.615906
-218.855850 1946.953979 218.700302
-70.308258 1947.723999 213.772308
-65.960258 1948.443970 207.328308
-100.848259 1949.354004 196.071899
-85.112259 1948.754028 203.527893
-106.615860 1948.154053 207.456299
-116.135857 1948.593994 202.751892
-136.795853 1949.573975 188.999908
-120.507858 1948.364014 204.552307
-124.583855 1947.164062 217.084305
-125.987854 1947.154053 217.164307
-120.583855 1957.674072 112.179947
-125.367859 1956.833984 118.551903
-137.343857 1958.833984 94.091927
-102.475853 1956.784058 127.327904
-93.512253 1955.484009 141.571899
-59.940258 1955.223999 149.615906
-69.360260 1956.443970 137.663910
-47.180256 1954.933960 153.899902
-283.627869 1946.723999 190.951904
-274.275879 1947.174072 187.283905
-275.515869 1946.864014 216.356293
-269.755859 1947.144043 197.627899
-257.135864 1946.884033 219.712311
-248.107849 1947.774048 194.967896
-244.559860 1948.374023 183.483902
-244.063858 1948.654053 177.843903
198.552139 1947.823975 200.959900
200.280136 1948.664062 183.911896
199.660141 1948.864014 180.155914
205.312149 1949.953979 159.303894
202.440140 1949.973999 159.771912
185.804138 1948.583984 188.007904
185.776138 1948.683960 186.511902
175.672150 1947.784058 204.192307
182.736145 1949.054077 181.519897
173.556137 1949.313965 180.091904
171.548141 1950.804077 162.299896
179.712143 1949.693970 172.255905
159.440140 1949.384033 184.283905
147.052139 1951.054077 169.219910
167.944138 1951.244019 158.243896
145.560150 1951.294067 166.555908
133.680145 1947.963989 207.792297
118.252144 1948.323975 205.168304
133.776138 1951.343994 169.259903
125.568146 1952.343994 160.839905
117.508141 1950.384033 182.499908
93.271744 1948.614014 202.291901
105.712143 1950.134033 185.347900
88.663742 1951.384033 177.311905
110.424141 1953.014038 157.663910
98.612144 1949.644043 191.275909
88.431847 1948.364014 205.236298
70.043747 1950.313965 188.863907
78.799744 1951.874023 173.975906
79.447845 1951.843994 174.291901
62.255745 1947.104004 219.456299
62.303741 1952.254028 172.211914
46.299744 1953.973999 159.783905
47.555744 1951.014038 184.915894
48.423744 1950.323975 190.695892
14.003743 1948.723999 205.676300
24.427744 1949.014038 203.159912
28.023743 1951.174072 184.507904
20.455744 1948.943970 203.760315
6.083782 1950.813965 188.807907
23.659744 1954.154053 160.007904
18.567743 1950.573975 189.811905
19.931744 1952.134033 176.915894
8.827743 1948.453979 208.012299
-22.152256 1947.524048 216.240295
-6.776258 1950.953979 188.051910
-24.552256 1948.274048 210.032303
-10.444227 1950.384033 192.679901
-28.424257 1949.494019 199.927902
-30.384256 1951.654053 182.027893
-32.152256 1950.323975 192.967896
-33.116257 1950.754028 189.439911
-29.784256 1953.634033 165.543900
-75.516258 1950.514038 188.939911
-48.652256 1952.933960 170.687897
-52.760258 1950.894043 187.287903
-52.196255 1950.864014 187.611908
-44.812256 1953.193970 168.783905
-73.176254 1953.144043 166.271912
-82.928253 1952.874023 167.403900
-91.516258 1953.864014 156.743896
-115.591858 1952.943970 158.823898
-120.743858 1955.394043 133.115906
-107.279854 1954.914062 141.835907
-139.475861 1954.144043 139.915909
-149.655853 1955.264038 123.283905
-153.675858 1956.424072 108.859932
-163.839859 1953.453979 136.787903
-167.495850 1955.723999 110.307930
-180.199860 1956.544067 92.631905
-184.295853 1956.504028 90.307907
-186.507858 1955.994019 94.587891
-179.995850 1953.394043 128.763901
-186.163864 1952.823975 132.731903
-184.999863 1951.364014 151.591904
-194.763855 1952.063965 137.955902
-205.687851 1952.734009 122.055908
-210.879852 1952.433960 122.067902
-211.187851 1951.924072 128.587906
-223.363861 1953.144043 102.515930
-225.895859 1951.804077 118.783905
-238.823853 1951.473999 116.039902
-244.459854 1951.723999 109.259895
-246.743851 1951.104004 123.783905
-237.503860 1949.583984 158.867905
-250.411850 1951.073975 124.859901
-253.727859 1948.953979 168.123901
-276.467865 1947.744019 170.831909
-83.536255 1960.174072 103.719917
-90.172256 1960.764038 97.083931
-59.016258 1958.544067 122.139908
-54.796257 1959.193970 117.499901
-68.212257 1958.034058 124.779907
-45.704258 1955.223999 151.683899
-44.180256 1957.124023 136.331909
-19.984257 1961.544067 100.383926
-41.096256 1962.644043 90.719902
-40.864258 1956.203979 144.083908
-3.216263 1962.193970 95.447884
-25.352257 1959.884033 113.967903
-25.424257 1955.193970 152.719910
-0.468217 1961.524048 100.943916
-2.568253 1955.914062 147.135895
-23.916256 1957.404053 134.527908
39.943745 1961.484009 96.223885
28.031744 1958.963989 118.459900
20.223743 1960.193970 109.387886
11.787743 1956.994019 136.835907
8.167743 1956.424072 142.003906
42.975742 1960.914062 100.583931
30.731743 1955.213989 150.515900
37.499744 1958.284058 123.651901
34.255745 1958.854004 118.971901
67.931847 1959.874023 103.931892
56.479744 1960.833984 98.635933
57.839745 1958.504028 118.115906
54.379742 1957.354004 128.707901
48.335743 1961.073975 98.703926
87.207840 1957.644043 119.619904
73.855743 1954.963989 146.639908
79.827843 1954.104004 153.679901
85.567841 1954.794067 146.387909
104.460144 1957.823975 112.559883
100.864143 1958.804077 105.027901
122.124146 1959.323975 92.503906
109.744141 1957.154053 116.659904
131.668137 1958.374023 97.607910
125.376144 1956.234009 120.507904
110.860146 1955.463989 132.087906
133.156143 1954.924072 132.335907
108.572144 1954.124023 146.703903
157.868149 1957.304077 96.507881
159.276138 1957.024048 98.479927
166.092148 1957.244019 92.923904
148.724136 1952.304077 154.591904
157.484146 1953.034058 141.779907
167.356140 1954.333984 121.699905
174.520142 1955.134033 108.699890
180.880142 1954.554077 110.851936
152.544144 1952.144043 154.799896
192.192139 1954.073975 108.979927
197.476151 1953.134033 115.587906
187.708145 1950.823975 153.939911
202.844147 1952.083984 127.139908
212.204147 1953.304077 103.955879
210.796143 1951.183960 136.231903
211.888138 1951.244019 134.743896
213.964142 1950.774048 141.979904
228.752136 1952.304077 110.455887
227.812149 1951.304077 131.999908
231.412140 1951.554077 127.927902
240.048141 1952.484009 110.743904
233.176147 1951.374023 133.807907
240.540146 1951.713989 130.779907
235.852142 1950.624023 152.331909
244.652145 1951.073975 146.835907
254.684158 1951.364014 144.207901
246.104141 1950.073975 166.071899
250.900146 1949.804077 171.351898
258.012115 1949.874023 170.863907
261.176117 1949.404053 178.639893
276.360138 1949.774048 172.547913
285.608124 1949.044067 183.267914
-776.464844 -514.941895 437.020294
-753.388855 -517.957947 523.916321
-758.366821 -515.673950 526.588318
-802.897827 -502.749908 514.224304
-841.084839 -495.745911 493.320282
-881.637817 -487.601929 454.448303
-875.707825 -488.729919 471.908295
-854.618835 -498.969910 375.612305
-817.227844 -514.253906 362.212311
-799.582825 -521.257935 359.656311
-753.474854 -540.985901 361.240295
-696.218811 -575.617920 358.492310
-690.033813 -578.957947 359.136292
-689.543823 -573.733948 371.380310
-705.588867 -556.509949 391.112305
-710.367859 -566.117920 360.272308
-711.579834 -561.769897 367.748291
-728.258850 -536.713928 418.460297
-761.047852 -525.349915 403.112305
-749.680847 -529.273926 405.920288
-735.089844 -536.065918 405.036285
-753.441833 -531.697937 389.416290
-730.300842 -543.517944 387.028290
-740.943848 -546.953918 363.008301
-761.588867 -532.985901 372.736298
-793.293823 -511.253906 427.408295
-814.207825 -506.917908 414.900299
-794.051819 -512.569946 414.640289
-872.487854 -490.201935 435.756287
-869.096863 -491.265930 423.020294
-730.390869 -537.493896 409.192291
-747.888855 -528.133911 415.340302
-750.005859 -528.061951 411.216309
-831.795837 -503.293915 400.772308
-803.134827 -513.637939 389.236298
-795.471863 -515.193909 394.232300
-726.135864 -547.961914 380.652283
-810.658813 -514.641907 371.016296
-804.581848 -513.945923 384.960297
-779.402832 -515.297913 426.668304
-760.576843 -520.801941 430.936310
-859.901855 -494.221924 410.476288
-849.966858 -496.933929 414.168304
-863.176819 -492.993927 417.704285
-823.663818 -500.257935 481.076294
-812.689819 -502.857910 477.472290
-806.133850 -504.033936 482.228302
-787.153870 -509.873932 461.420288
-856.297852 -494.177917 448.936310
-842.605835 -496.849915 465.672302
-824.421814 -501.013916 464.132294
-726.064819 -533.817932 514.244324
-723.812866 -534.965942 500.684296
-724.970825 -533.841919 489.632294
-744.135864 -522.925903 489.776306
-696.765869 -558.813904 470.488281
-695.967834 -564.261902 386.280304
-693.053833 -560.425903 425.908295
-692.142822 -562.285950 442.072296
-685.765869 -567.261902 415.748291
-687.431824 -565.781921 423.320282
-692.522827 -563.309937 456.820282
-704.327820 -550.029907 448.172302
-706.754822 -547.985901 467.056305
-715.540833 -545.545898 410.648285
-714.837830 -544.509949 418.464294
-712.243835 -543.841919 440.232300
-704.775818 -562.909912 374.432281
-696.692871 -557.745911 447.840302
-698.399841 -556.269897 457.804291
-766.435852 -514.513916 480.844299
-759.693848 -516.621948 484.864288
-751.925842 -519.945923 476.160309
-741.474854 -524.493896 476.924286
-727.783813 -532.641907 455.240295
-755.033813 -519.817932 458.788300
-772.369812 -514.165955 458.568298
-778.154846 -512.265930 461.832306
-786.047852 -510.977905 450.944305
-846.169861 -496.841919 443.616302
-866.494812 -491.753906 440.468292
-731.815857 -529.609924 473.040283
-731.316833 -530.105896 466.740295
-736.333862 -527.417908 466.684296
-742.285828 -524.501892 467.456299
-748.091858 -521.993896 466.764282
-767.347839 -515.097900 467.052307
-783.589844 -510.481934 466.356293
-821.206848 -498.845917 511.672302
-820.687866 -499.557922 502.928284
-777.126831 -510.729919 491.004303
-772.231812 -511.817932 498.056305
-763.096863 -514.469910 507.164307
-855.788818 -496.645935 391.516296
-849.702820 -498.533936 392.572296
-848.984863 -497.593933 407.960297
-788.264832 -511.753906 435.752289
-777.393860 -513.237915 451.844299
-753.038818 -522.201904 441.164307
-748.216858 -523.369934 447.932281
-726.795837 -533.957947 445.208282
-713.213867 -542.325928 468.728302
-677.570862 -571.669922 421.168304
-650.901855 -561.473938 416.132294
-646.506836 -561.701904 438.256287
-669.871826 -574.341919 370.720306
-663.249817 -569.689941 379.472290
-671.043823 -572.817932 437.940308
-662.882812 -567.505920 420.208282
-678.896851 -571.781921 419.320282
-657.591858 -564.909912 395.632294
-641.013855 -612.225891 450.812286
-671.665833 -579.261902 446.792297
-649.400818 -566.917908 450.968292
-644.822815 -633.925903 444.104309
-661.334839 -592.821899 447.088287
-659.989868 -594.821899 447.216309
-659.348816 -609.989929 444.976288
-666.629822 -608.793945 443.060303
-674.155823 -637.685913 433.276306
-679.156860 -625.661926 435.336304
-677.995850 -650.273926 427.236298
-672.608826 -679.073914 408.564301
-672.969849 -679.325928 393.988281
-679.037842 -660.681946 379.452301
-677.025818 -654.709900 373.156311
-684.142822 -640.993896 371.556305
-685.313843 -629.585938 366.416290
-680.667847 -655.837891 377.548309
-641.995850 -576.965942 454.208282
-658.802856 -666.049927 426.772308
-652.161865 -675.385925 422.864288
-641.450867 -573.717896 454.352295
449.264130 894.026062 -327.739716
287.076141 1160.823975 -322.495697
236.764145 1073.054077 -324.221710
105.920143 946.462097 -326.709717
507.788116 795.462097 -329.677704
368.312134 912.634094 -327.374695
451.676117 918.946106 -327.249695
113.160141 880.994080 -327.995697
189.136139 832.006104 -328.958710
277.760132 823.966064 -329.116699
367.388123 1229.254028 -321.151703
411.216125 1331.963989 -319.132690
466.324127 1527.463989 -315.289703
477.136139 897.110107 -327.679718
459.916138 1140.973999 -322.886719
416.096130 1001.294067 -325.631714
231.432144 906.614075 -327.492706
475.008118 1366.864014 -318.446716
496.996124 913.910095 -327.349701
464.188141 1371.274048 -318.359711
484.924133 1209.044067 -321.548706
483.144135 1408.323975 -317.631714
493.440125 1416.674072 -317.467712
403.004120 1003.304077 -325.591705
376.776123 1181.264038 -322.094696
408.328125 1358.774048 -318.605713
318.408142 1080.924072 -324.066711
502.520142 985.534058 -325.941711
329.084137 1172.134033 -322.273712
330.028137 984.854065 -325.954712
208.936142 1026.963989 -325.127716
359.708130 946.554077 -326.707703
166.048141 849.650085 -328.611694
227.564148 1060.953979 -324.459717
133.688141 892.190063 -327.775696
461.340118 892.358093 -327.772705
425.248138 1049.063965 -324.692719
292.232117 793.642090 -329.712708
463.044128 1477.754028 -316.267700
282.632141 791.754089 -329.749695
