ply
format ascii 1.0
element vertex 1355
property float x
property float y
property float z
end_header
-424.355194 -1713.938110 -483.756866
65.732506 -1599.418091 -485.712860
522.300781 -1417.098145 -488.824860
387.208801 -1602.258057 -485.664886
-412.415192 -1697.898071 -484.028839
162.708801 -1696.378052 -484.056854
229.880798 -1557.218140 -486.432892
158.684799 -1623.258057 -485.304840
152.808807 -1710.058105 -483.820892
492.144806 -1441.218140 -488.412872
513.864807 -1724.778076 -483.568878
198.248810 -1679.378052 -484.344879
29.020609 -1587.498047 -485.916840
-229.695190 -1745.458130 -483.216888
-290.815186 -1702.658081 -483.948883
-178.875198 -1730.978027 -483.464874
-138.775192 -1731.338135 -483.456879
365.188812 -1732.698120 -483.436859
-85.083389 -1748.218140 -483.168854
556.528809 -1678.618042 -484.356842
88.364609 -1548.618042 -486.580841
546.112793 -1675.058105 -484.420868
582.432800 -1401.378052 -489.092865
14.904709 -1641.418091 -484.992889
97.092613 -1655.898071 -484.744843
555.036804 -1535.098145 -486.808868
476.924805 -1670.458130 -484.496857
544.680786 -1631.618042 -485.160858
364.164795 -1730.298096 -483.476898
196.748810 -1713.458130 -483.764862
-173.983200 -1744.578125 -483.232880
503.940796 -1478.498047 -487.776886
-546.827209 -1735.178101 -483.392853
-13.631390 -1581.058105 -486.024872
536.436829 -1630.698120 -485.176849
38.100708 -1744.538086 -483.232880
600.884827 -1681.338135 -484.312897
451.696808 -1422.738037 -488.728851
236.696808 -1741.218140 -483.288849
412.044800 -1681.178101 -484.316864
466.236816 -1656.178101 -484.740875
-78.287392 -1747.898071 -483.176849
514.332825 -1450.858032 -488.248871
577.272827 -1646.138062 -484.912872
365.268799 -1617.378052 -485.404877
557.236816 -1665.898071 -484.576874
-92.391388 -1609.098145 -485.544891
603.068787 -1691.778076 -484.132843
148.288803 -1602.578125 -485.656891
556.192810 -1606.658081 -485.588898
-112.339188 -1703.938110 -483.924896
498.088806 -1686.178101 -484.228851
-159.099197 -1624.018066 -485.292877
324.496796 -1609.298096 -485.540863
459.092804 -1456.218140 -488.156891
487.364807 -1433.418091 -488.548859
599.164795 -1727.898071 -483.516876
236.992798 -1499.418091 -487.420868
472.140808 -1447.178101 -488.312897
-449.659210 -1736.378052 -483.372894
-63.851292 -1702.338135 -483.952850
136.988800 -1560.698120 -486.372894
374.480804 -1697.578125 -484.032867
-373.083191 -1708.338135 -483.848846
-363.563202 -1707.578125 -483.864838
193.312805 -1605.738037 -485.604889
295.036804 -1552.218140 -486.516876
435.232819 -1670.218140 -484.500885
-39.367294 -1663.218140 -484.620880
209.948807 -1739.378052 -483.320892
475.440796 -1484.338135 -487.676849
206.920807 -1708.258057 -483.852875
130.556808 -1652.938110 -484.796844
383.732819 -1458.498047 -488.116852
-188.495193 -1712.378052 -483.780853
-396.507202 -1708.938110 -483.840851
251.164810 -1594.058105 -485.804840
-102.327187 -1597.378052 -485.744843
-458.467194 -1748.498047 -483.164886
285.976807 -1635.138062 -485.100861
218.792801 -1566.858032 -486.268890
545.408813 -1588.418091 -485.900848
53.412708 -1644.538086 -484.940887
325.444794 -1727.178101 -483.528839
-238.303192 -1749.258057 -483.152863
438.904816 -1712.898071 -483.772858
92.748711 -1644.218140 -484.944855
522.040833 -1682.018066 -484.300873
316.844818 -1572.138062 -486.176849
-106.527191 -1670.778076 -484.492889
48.624607 -1603.938110 -485.632843
123.908813 -1692.178101 -484.128876
-435.199188 -1721.898071 -483.620880
-318.887207 -1685.578125 -484.240875
486.156799 -1440.418091 -488.428864
508.180817 -1527.618042 -486.936859
582.060791 -1540.578125 -486.716888
-74.711288 -1699.378052 -484.004852
29.592609 -1705.218140 -483.904877
446.644806 -1710.378052 -483.816864
-21.479391 -1617.178101 -485.408844
418.208801 -1465.378052 -488.000885
382.604797 -1579.058105 -486.056854
399.924805 -1605.218140 -485.612885
0.572639 -1617.338135 -485.404877
532.616821 -1717.258057 -483.696869
532.972778 -1558.538086 -486.408844
-234.415192 -1639.738037 -485.020844
406.756805 -1478.178101 -487.780853
286.844818 -1665.258057 -484.584869
296.288818 -1625.578125 -485.264862
483.552795 -1685.018066 -484.248871
-112.611191 -1727.858032 -483.516876
213.436798 -1593.058105 -485.820892
61.936607 -1726.258057 -483.544891
367.052795 -1554.938110 -486.472870
488.820801 -1528.418091 -486.924896
146.912811 -1541.178101 -486.704865
57.756706 -1654.658081 -484.768890
226.192810 -1525.378052 -486.976898
524.168823 -1478.298096 -487.780853
458.276794 -1685.578125 -484.240875
216.040802 -1736.978027 -483.360870
431.008789 -1716.738037 -483.708893
-338.987183 -1733.778076 -483.416840
477.396790 -1604.458130 -485.624847
473.924805 -1653.218140 -484.792877
283.860809 -1524.138062 -486.996857
294.564789 -1489.898071 -487.580841
161.940811 -1517.058105 -487.116852
585.020813 -1418.658081 -488.800873
537.624817 -1580.258057 -486.036896
195.912811 -1645.698120 -484.920868
503.004791 -1526.098145 -486.964874
-461.799194 -1736.938110 -483.360870
-297.379211 -1691.938110 -484.128876
268.020813 -1609.898071 -485.532867
161.840805 -1732.578125 -483.436859
219.100800 -1642.858032 -484.968842
370.028809 -1732.178101 -483.444855
213.256805 -1517.658081 -487.108856
250.276810 -1601.098145 -485.680878
-58.755394 -1585.658081 -485.944855
-332.871185 -1745.658081 -483.212860
522.676819 -1569.018066 -486.228851
-122.223190 -1699.938110 -483.992889
434.084808 -1728.938110 -483.500885
567.900818 -1492.618042 -487.536896
-273.823181 -1690.818115 -484.148895
398.380798 -1471.178101 -487.900848
20.888510 -1742.338135 -483.268890
366.044800 -1600.698120 -485.688873
491.476807 -1589.578125 -485.880890
497.920807 -1502.618042 -487.364838
-257.379211 -1727.938110 -483.516876
-169.815201 -1666.538086 -484.564850
223.920807 -1655.378052 -484.756866
271.516815 -1510.498047 -487.228851
161.068802 -1514.578125 -487.160858
-94.715286 -1623.498047 -485.300873
278.100800 -1746.938110 -483.192841
503.544800 -1637.578125 -485.060883
499.496796 -1471.338135 -487.900848
389.732819 -1503.098145 -487.356842
429.048798 -1558.778076 -486.404877
396.328796 -1536.218140 -486.788849
421.916809 -1696.138062 -484.060883
250.988800 -1557.018066 -486.436859
323.772797 -1485.178101 -487.660858
391.364807 -1682.298096 -484.296844
122.804810 -1554.458130 -486.480865
418.776794 -1647.378052 -484.892853
493.148804 -1743.338135 -483.252838
-38.751293 -1658.538086 -484.700897
566.920776 -1654.138062 -484.776886
319.460815 -1486.898071 -487.632843
88.772614 -1644.418091 -484.940887
366.604797 -1598.738037 -485.720856
577.816833 -1700.538086 -483.984894
-56.655392 -1629.098145 -485.204865
414.792816 -1653.258057 -484.792877
343.420807 -1474.818115 -487.840851
407.816803 -1521.378052 -487.044891
597.700806 -1546.698120 -486.612885
234.248810 -1561.418091 -486.360870
-101.755188 -1621.978027 -485.324860
530.668823 -1523.138062 -487.012848
304.300812 -1686.098145 -484.232880
165.980804 -1633.098145 -485.136871
-288.199188 -1690.338135 -484.156891
581.164795 -1480.778076 -487.736847
76.280609 -1747.938110 -483.172882
312.900818 -1648.938110 -484.864838
217.036804 -1559.778076 -486.388885
60.436607 -1702.898071 -483.944855
40.240608 -1588.618042 -485.896881
-109.247192 -1687.938110 -484.200897
-288.131195 -1720.418091 -483.644867
268.020813 -1609.658081 -485.536896
22.332609 -1709.578125 -483.828888
186.564804 -1711.778076 -483.792877
219.564804 -1497.298096 -487.456879
-301.819183 -1699.778076 -483.996857
220.496811 -1504.618042 -487.328888
464.584808 -1713.658081 -483.760895
463.712799 -1682.738037 -484.288849
513.668823 -1482.138062 -487.712860
287.944794 -1494.778076 -487.496857
322.604797 -1536.418091 -486.788849
178.028809 -1594.258057 -485.800873
114.496811 -1534.858032 -486.812897
259.320801 -1624.778076 -485.276886
437.036804 -1641.338135 -484.996857
486.136810 -1747.458130 -483.180878
-432.111206 -1718.938110 -483.668854
-24.459391 -1587.418091 -485.916840
-113.247192 -1714.098145 -483.752838
586.068787 -1509.978027 -487.236847
85.160515 -1719.738037 -483.656891
159.896805 -735.334167 -487.664886
166.764801 -683.814148 -487.384857
-727.371216 364.037872 -481.712860
-18.383390 -64.022026 -484.028839
-592.359192 -44.205822 -483.924896
-597.231201 -302.254120 -485.320892
-695.383179 222.741882 -482.476898
78.496712 -543.174133 -486.624847
-780.631226 -182.214111 -484.668854
611.140808 -840.534119 -488.232880
-618.051208 408.289886 -481.472870
-276.759186 -372.054108 -485.696869
-750.615173 -287.174103 -485.236847
-362.759186 162.341888 -482.804840
-531.367188 370.561890 -481.676849
-278.775208 -218.254120 -484.864838
361.784790 -640.974121 -487.152863
-827.499207 -9.653820 -483.736847
-747.159180 796.185852 -479.376862
-758.191223 468.509888 -481.148895
-641.835205 336.781891 -481.860870
-220.927200 -822.614136 -488.136871
-440.531189 200.629883 -482.596893
355.256805 -589.294128 -486.872894
300.780792 -382.974121 -485.756866
-361.791199 -399.614105 -485.844879
491.324799 -627.774170 -487.080841
-582.803223 -835.094177 -488.204865
-636.251221 437.889893 -481.312897
401.552795 -828.614136 -488.168854
-374.903198 -115.518127 -484.308868
238.692810 -291.774109 -485.264862
-67.803291 -591.894165 -486.888885
-805.383179 810.225830 -479.300873
-772.115173 -856.934143 -488.320892
-710.163208 -643.534119 -487.168854
-525.403198 -604.614136 -486.956879
-263.059204 -53.641922 -483.972870
-737.307190 519.373840 -480.872894
-363.407196 -657.494141 -487.240875
-366.171204 206.321884 -482.568878
-487.363190 526.297852 -480.836884
-562.199219 40.942081 -483.460846
-343.499207 39.934078 -483.468842
633.744812 -780.774170 -487.908844
-257.159210 -380.214111 -485.740875
329.256805 -625.374146 -487.068878
-467.463196 -298.534119 -485.300873
-214.779190 -75.861824 -484.092865
-700.971191 -713.414124 -487.544891
441.036804 -674.974121 -487.336884
-705.163208 721.337830 -479.780853
-418.207184 97.674072 -483.156891
-190.871201 66.014076 -483.328888
360.880798 -442.734131 -486.080841
389.652802 -738.494141 -487.680878
503.392792 -773.454163 -487.868866
380.156799 -821.014160 -488.128876
-496.239197 -449.774109 -486.116852
-652.859192 -88.077927 -484.160858
-673.703186 487.589874 -481.044891
-651.115173 175.729889 -482.732880
-479.723206 -262.334106 -485.104889
165.416809 -336.094116 -485.504852
-218.111191 -133.286118 -484.404877
-750.131226 -92.913826 -484.188873
715.148804 -807.414124 -488.052887
-555.127197 -245.934113 -485.016876
-454.675201 467.821869 -481.152863
-582.383179 -364.414124 -485.656891
316.000793 -360.534119 -485.636871
8.600709 -379.374115 -485.736847
-282.463196 -831.654175 -488.184845
553.780823 -704.934143 -487.500885
31.880709 -383.494110 -485.760895
-666.895203 290.109894 -482.112885
-656.919189 -615.894165 -487.016876
-99.415192 42.046082 -483.456879
585.012817 -742.894165 -487.704865
601.684814 -665.174133 -487.284882
-600.631226 -577.614136 -486.808868
-737.767212 -854.694153 -488.308868
-17.887291 -566.414124 -486.748871
-398.263184 -356.534119 -485.612885
378.644806 -832.934143 -488.192841
-398.551208 133.029877 -482.964874
-795.211182 141.325882 -482.920868
-701.355225 119.161873 -483.040863
-410.447205 412.493896 -481.452850
-333.731201 -96.458122 -484.204865
-748.107178 498.261871 -480.988861
-613.587219 -722.614136 -487.596893
-225.851196 -14.594021 -483.764862
41.936607 -490.214111 -486.336884
38.008709 -376.734131 -485.724884
204.788803 -283.254120 -485.216888
510.268799 -602.334167 -486.944855
-693.311218 75.830078 -483.272858
-19.975290 -478.654114 -486.272858
-255.779205 -133.186111 -484.404877
695.768799 -747.494141 -487.728851
-776.879211 384.605896 -481.600861
-409.087189 -97.126122 -484.208893
334.824799 -800.854126 -488.016876
-338.343201 -731.094177 -487.640839
346.140808 -754.934143 -487.768890
699.520813 -729.174133 -487.628876
-776.111206 -365.694122 -485.664886
-755.523193 -477.134125 -486.264862
-584.631226 -115.094124 -484.308868
476.992798 -865.814148 -488.368866
-685.163208 -351.374115 -485.584869
-630.103210 -190.654114 -484.716888
-92.115387 -253.534119 -485.056854
-413.123199 -221.214111 -484.880890
-563.367188 -15.589920 -483.768890
-358.071198 94.714073 -483.172882
-13.095291 -391.774109 -485.804840
107.704811 -850.294128 -488.284882
-236.603195 -164.014114 -484.572845
-682.159180 711.125854 -479.836884
500.072815 -794.534119 -487.984894
361.144806 -744.134155 -487.712860
-823.251221 238.437881 -482.392853
86.648613 -172.414124 -484.616852
-494.851196 -84.921921 -484.144867
-797.111206 -442.694122 -486.080841
-642.203186 -778.854126 -487.900848
-308.199188 -108.286125 -484.268890
-428.383209 -32.562019 -483.860870
-382.915192 -449.694122 -486.116852
-815.259216 755.933838 -479.592865
152.980804 -823.894165 -488.144867
-359.931183 -86.290123 -484.152863
-791.795166 78.105873 -483.260895
98.928612 -802.334167 -488.024872
-403.939209 -305.254120 -485.336884
-560.299194 311.777893 -481.996857
-784.347168 -621.694153 -487.048859
-590.939209 458.161896 -481.204865
756.072815 -849.814148 -488.284882
-104.727188 -51.886021 -483.964874
-4.167351 -515.174133 -486.472870
594.440796 -773.054138 -487.868866
-726.803223 144.769882 -482.900848
-753.103210 -563.054138 -486.732880
563.104797 -841.694153 -488.240875
-734.619202 81.694077 -483.240875
128.656815 -206.774109 -484.804840
-629.739197 -164.814117 -484.576874
-641.815186 175.969879 -482.732880
-69.471291 -250.414124 -485.040863
-111.439186 -720.814148 -487.584869
-18.699291 -9.517820 -483.736847
-722.963196 668.821838 -480.064850
-391.515198 58.142078 -483.368866
-470.403198 188.457886 -482.664886
-371.571198 260.573883 -482.272858
-375.931183 374.241882 -481.656891
-682.539185 509.673889 -480.924896
-369.655182 -521.734131 -486.508881
347.284790 -729.654175 -487.632843
-133.783203 -278.574127 -485.192841
-649.703186 -724.494141 -487.604889
-577.503174 -323.174103 -485.432892
303.272797 -642.174133 -487.160858
-21.971291 -268.894104 -485.140839
-56.411392 -30.825920 -483.852875
-113.535187 -342.854126 -485.540863
-298.891205 -669.254150 -487.304840
-750.111206 546.657837 -480.724884
-30.579290 -470.054108 -486.228851
-646.535217 439.861877 -481.304840
-757.899170 -600.054138 -486.932892
-419.287201 344.561890 -481.820892
-43.475292 -622.734131 -487.052887
-415.547211 154.725891 -482.844879
-333.339203 206.061890 -482.568878
-698.795166 631.205872 -480.268890
-657.575195 460.785889 -481.188873
-194.267197 -54.621819 -483.980865
-157.327194 -490.094116 -486.336884
-794.847168 -143.990112 -484.464874
-504.767181 -370.534119 -485.688873
-509.891174 330.953888 -481.892853
-588.963196 -581.054138 -486.828888
-533.179199 531.033875 -480.808868
-688.411194 158.973877 -482.824860
-156.803192 178.177887 -482.720856
64.836510 -858.254150 -488.328888
-551.767212 296.901886 -482.076874
-778.859192 -858.054138 -488.328888
-123.631187 -54.597919 -483.980865
425.840790 -493.054108 -486.352875
658.732788 -849.574158 -488.280853
411.588806 -594.254150 -486.900848
-47.199291 -93.273926 -484.188873
-736.119202 -783.694153 -487.924896
-660.283203 -116.202126 -484.312897
-694.447205 493.253876 -481.012848
-812.299194 364.725891 -481.708893
340.844818 -773.614136 -487.872894
-510.587219 -12.606020 -483.752838
-511.215210 410.313873 -481.464874
-89.875389 -69.817924 -484.060883
349.404816 -449.094116 -486.112885
-64.247292 -670.894165 -487.316864
398.632812 -702.454163 -487.484894
-575.263184 320.297882 -481.948883
-684.807190 -730.054138 -487.636871
-562.759216 -504.134125 -486.412872
-45.663292 -333.454102 -485.488861
-306.991211 317.449890 -481.964874
-23.435390 -587.774170 -486.864838
199.936798 -639.294128 -487.144867
-587.907227 442.865875 -481.288849
-53.351292 -434.934113 -486.036896
-443.371185 -590.974121 -486.880890
-664.719177 -513.494141 -486.464874
258.824799 -397.934113 -485.836884
-294.771210 -510.174103 -486.444855
-632.647217 233.321884 -482.420868
-784.155212 766.473877 -479.536896
-67.291389 -16.022020 -483.768890
-645.003174 -234.374115 -484.952850
-171.287201 -265.534119 -485.120880
-515.855225 20.754080 -483.572845
655.232788 -836.494141 -488.212860
-680.443176 143.341888 -482.908844
-665.055176 -170.814117 -484.608856
-351.415192 -419.294128 -485.952850
-502.587189 209.637878 -482.548859
-812.771179 -86.730026 -484.152863
-631.395203 54.878181 -483.388885
120.860809 -495.374115 -486.364838
-159.855194 -385.134125 -485.768890
675.280823 -737.694153 -487.676849
-524.303223 554.193848 -480.684845
-350.963196 129.909882 -482.980865
336.500793 -794.574158 -487.984894
-611.967224 662.545837 -480.096893
-256.471191 180.629883 -482.704865
177.876801 -265.694122 -485.120880
-664.779175 25.890079 -483.544891
530.028809 -834.254150 -488.200897
258.960815 -706.374146 -487.508881
-94.395386 4.969939 -483.656891
20.500610 -551.414124 -486.668854
-668.719177 -289.374115 -485.248871
-745.467224 -799.894165 -488.012848
-293.267181 -851.654175 -488.292877
-185.407196 57.694080 -483.372894
-713.579224 -117.686127 -484.320892
-96.771385 114.333878 -483.064850
374.556793 -576.374146 -486.804840
-730.351196 -4.285921 -483.708893
304.616791 -643.894165 -487.168854
-145.291199 -126.318123 -484.368866
722.528809 -848.614136 -488.276886
-119.191185 -73.354027 -484.080841
-180.779190 -299.174103 -485.304840
-608.731201 263.569885 -482.256866
-514.039185 -311.574127 -485.368866
-156.415192 -860.134155 -488.340851
203.832809 -688.174133 -487.408844
-418.075195 -812.774170 -488.084869
274.944794 -869.054138 -488.388885
31.788710 -200.894119 -484.772858
-240.479202 224.845886 -482.468842
93.908615 -317.054108 -485.400848
-300.959198 31.261879 -483.516876
-344.243195 -830.454163 -488.176849
-752.739197 810.057861 -479.300873
-483.203186 406.945892 -481.480865
125.292809 -327.094116 -485.452850
528.180786 -599.854126 -486.928864
-252.259201 -318.854126 -485.408844
-734.903198 -339.694122 -485.520844
-777.799194 555.449829 -480.676849
-707.991211 -345.694122 -485.556854
143.384796 -414.934113 -485.928864
-226.403198 -99.086121 -484.220856
-697.463196 -784.974121 -487.932892
-823.979187 -330.894104 -485.476898
-523.367188 -417.014130 -485.940887
-202.523193 22.622080 -483.560883
-41.331394 -193.454117 -484.732880
-703.543213 570.861877 -480.592865
-226.083191 -773.734131 -487.872894
-759.935181 -163.522110 -484.568878
-303.575195 -703.374146 -487.492889
-464.103210 -402.494110 -485.860870
-755.391174 554.245850 -480.684845
108.140808 -561.974121 -486.724884
-534.575195 -256.654114 -485.072845
75.388512 -571.534119 -486.776886
-322.155182 299.233887 -482.064850
-578.591187 -551.014160 -486.664886
229.188797 -368.454102 -485.676849
-61.539295 56.942081 -483.376862
-652.295166 -247.894119 -485.024872
-681.859192 -580.294128 -486.824860
-326.543182 -68.898026 -484.056854
-766.299194 -726.334167 -487.616852
-511.887207 101.969978 -483.132843
-333.551208 233.545883 -482.420868
-580.755188 46.286079 -483.432892
36.504509 -740.494141 -487.692841
-511.851196 -473.134125 -486.244843
-134.379196 -815.534119 -488.096893
90.572609 -651.254150 -487.208893
-190.659195 -830.614136 -488.180878
230.708801 -436.494110 -486.044891
-406.915192 7.590053 -483.644867
-753.739197 -235.854111 -484.960846
-757.899170 -282.654114 -485.212860
-679.495178 710.761841 -479.836884
-29.171392 -162.274109 -484.560883
-303.963196 -601.294128 -486.936859
-613.643188 589.529846 -480.492889
-661.171204 -93.037926 -484.188873
153.340805 -273.534119 -485.164886
-281.751190 238.829880 -482.392853
499.972809 -769.534119 -487.848846
-110.495186 -417.734131 -485.944855
-712.991211 -373.094116 -485.704865
-284.047211 -854.574158 -488.308868
-806.347168 -331.254120 -485.476898
73.700615 -728.294128 -487.624847
-480.087189 519.281860 -480.872894
-129.031189 -265.974121 -485.124847
-255.603210 -120.278122 -484.336884
-696.375183 -865.134155 -488.364838
-196.119202 -108.482124 -484.272858
337.432800 -664.694153 -487.280853
-616.999207 151.313889 -482.864838
-801.335205 140.269882 -482.924896
-452.779205 -772.334167 -487.864838
147.644806 -289.814117 -485.252838
-23.215290 -869.214172 -488.388885
-88.423286 -447.134125 -486.104889
-557.535217 83.450172 -483.232880
14.044609 -551.854126 -486.668854
436.576813 -840.694153 -488.232880
-786.831177 -445.934113 -486.096893
-400.043182 -293.094116 -485.268890
-486.879211 18.001879 -483.584869
-684.411194 -0.998081 -483.688873
217.356796 -266.854126 -485.128876
-704.779175 -75.621826 -484.092865
-519.431213 143.913879 -482.904877
-205.979202 -633.414124 -487.112885
-265.951202 282.713898 -482.152863
-785.343201 -402.054108 -485.860870
142.840805 -143.478119 -484.460846
-468.155182 -695.334167 -487.448883
-388.271210 -367.854126 -485.676849
-72.171387 -408.654114 -485.896881
-703.427185 26.361980 -483.540863
353.100800 -423.054108 -485.972870
-647.659180 -332.294128 -485.480865
-734.911194 663.249878 -480.092865
-308.795197 -12.062019 -483.748871
-5.699331 -301.934113 -485.316864
312.488800 -337.814117 -485.512848
-150.659195 -118.934128 -484.328888
191.944809 -781.734131 -487.916840
576.652832 -825.334167 -488.152863
650.184814 -858.294128 -488.328888
-762.911194 -412.854126 -485.916840
-237.795197 -358.534119 -485.624847
-216.191193 -620.014160 -487.040863
760.964783 -807.614136 -488.056854
-567.839172 -515.294128 -486.472870
-201.887192 -488.694122 -486.328888
-807.747192 -56.141922 -483.988861
-16.911390 -757.854126 -487.784882
344.784790 -733.134155 -487.652863
126.552811 -330.694122 -485.472870
-733.359192 595.345825 -480.460846
-181.611191 -234.814117 -484.956879
97.548714 -162.242111 -484.560883
-67.015388 -864.734131 -488.364838
412.184814 -445.574127 -486.096893
468.508789 -560.734131 -486.720856
-226.267197 -570.694153 -486.772858
-425.819183 330.337891 -481.896881
-661.883179 -305.014130 -485.336884
-506.923187 -318.134125 -485.404877
-603.467224 131.045883 -482.976898
-334.855194 -424.014130 -485.980865
176.112808 -279.294128 -485.196869
-33.307392 38.801979 -483.472870
-723.735168 376.661896 -481.644867
143.612808 -266.654114 -485.128876
108.820808 -491.454102 -486.344879
-490.759186 424.193878 -481.388885
71.040611 -751.414124 -487.748871
-235.375198 -205.734116 -484.796844
743.616821 -799.534119 -488.012848
-707.611206 705.661865 -479.864838
-782.575195 -167.334122 -484.588898
728.972778 -775.054138 -487.876862
7.352669 -39.745922 -483.900848
-395.255188 5.206019 -483.656891
-238.827194 -83.221924 -484.132843
-512.619202 -755.134155 -487.772858
-742.675171 -614.334167 -487.008881
-739.283203 -58.961918 -484.004852
-33.495392 -739.374146 -487.684845
-796.995178 -738.334167 -487.680878
-648.283203 -350.174103 -485.580841
-245.979202 -255.054108 -485.064850
-532.719177 436.877869 -481.320892
-188.503189 -526.614136 -486.532867
-10.243292 -269.454102 -485.140839
-248.407196 -266.654114 -485.128876
559.000793 -745.374146 -487.716888
-623.839172 -145.474121 -484.472870
-509.919189 343.657898 -481.824860
-426.355194 -222.974121 -484.888885
-700.559204 226.697876 -482.456879
-285.771210 -382.054108 -485.752838
-205.847198 -277.694122 -485.188873
-616.175171 594.049866 -480.468842
634.408813 -669.414124 -487.308868
-601.319214 503.997894 -480.956879
-519.567200 -818.974121 -488.116852
547.656799 -744.934143 -487.716888
399.256805 -778.934143 -487.900848
295.076813 -842.294128 -488.240875
-141.055191 121.101875 -483.028839
-712.303223 321.245880 -481.944855
-813.907227 531.165833 -480.808868
428.984802 -843.454163 -488.248871
-722.659180 535.629883 -480.784882
-433.551208 -263.534119 -485.108856
-203.103195 -177.414124 -484.644867
-13.947392 -825.134155 -488.148895
661.888794 -765.894165 -487.828888
-707.123169 -150.530121 -484.496857
51.340706 -703.254150 -487.488861
-533.175171 -84.814026 -484.144867
271.700806 -859.414124 -488.336884
-671.771179 22.506079 -483.560883
22.356609 -200.574112 -484.768890
-359.203186 -3.262001 -483.700897
-340.011200 26.913980 -483.536896
-131.055191 152.733887 -482.856842
-651.295166 -456.254120 -486.152863
-451.491211 -613.214172 -487.004852
-788.463196 538.773865 -480.768890
-461.807190 247.013885 -482.348846
-513.103210 -638.214172 -487.136871
-300.903198 -518.734131 -486.492889
108.544815 -100.926125 -484.228851
-442.307190 226.373886 -482.460846
130.164810 -778.894165 -487.900848
-321.111206 -241.254120 -484.988861
-55.863392 -605.854126 -486.964874
100.112709 -388.614105 -485.788849
-683.531189 -808.214172 -488.056854
-784.415222 -571.014160 -486.772858
-636.927185 -63.666019 -484.028839
-823.423218 -107.498123 -484.264862
-245.483200 -297.014130 -485.292877
-743.447205 -429.534119 -486.008881
-306.075195 -293.214111 -485.272858
-249.059189 -796.134155 -487.992889
587.220825 -867.054138 -488.376862
-560.515198 216.833878 -482.508881
-113.387192 -182.334122 -484.672882
-286.775208 285.477875 -482.140839
-173.475189 -387.494110 -485.780853
-483.943207 -494.094116 -486.356842
-122.067192 -750.734131 -487.748871
-256.787201 -475.374115 -486.256866
-382.739197 -333.894104 -485.492889
-628.503174 35.222179 -483.492889
6.288699 -830.974121 -488.180878
-647.043213 625.357849 -480.300873
142.624802 -597.854126 -486.920868
-764.811218 288.129883 -482.124847
-792.075195 457.425873 -481.208893
-299.307190 -86.846024 -484.152863
-373.207184 -821.254150 -488.128876
-784.735168 842.757874 -479.124847
-381.823181 -286.294128 -485.232880
-454.799194 -599.614136 -486.928864
-571.699219 -631.694153 -487.104889
-761.895203 421.465881 -481.404877
-776.451172 -27.126019 -483.832855
-206.759201 -78.877922 -484.112885
-386.419189 -773.494141 -487.868866
-92.555389 -812.494141 -488.080841
-740.707214 152.925888 -482.856842
-649.847168 -795.454163 -487.988861
75.440514 -460.494110 -486.176849
55.896606 -121.706123 -484.340851
360.644806 -721.414124 -487.588898
-341.863190 -29.730019 -483.844879
-427.947205 273.281891 -482.204865
-604.379211 -477.014130 -486.264862
-473.475189 306.653870 -482.024872
-579.403198 -272.094116 -485.156891
-292.971191 -257.334106 -485.076874
-278.595184 -32.357922 -483.860870
-91.407387 -228.854111 -484.920868
494.460815 -821.694153 -488.132843
-389.587189 -799.814148 -488.012848
-727.063171 581.209839 -480.536896
-425.851196 210.689880 -482.544891
-341.203186 32.257980 -483.508881
-90.719391 -126.694130 -484.368866
-322.795197 -420.654114 -485.960846
-587.487183 -49.594021 -483.952850
-81.359390 -241.974121 -484.992889
630.912781 -809.734131 -488.064850
-493.263184 -244.534119 -485.008881
-609.067200 -768.494141 -487.844879
-679.127197 58.858078 -483.364838
-795.855225 678.317871 -480.012848
434.680817 -572.694153 -486.784882
-744.839172 87.757973 -483.208893
-769.895203 67.893974 -483.316864
361.132812 -808.374146 -488.060883
-733.515198 196.389877 -482.620880
291.236816 -611.174133 -486.992889
106.040810 -603.334167 -486.948883
-719.307190 707.621826 -479.852875
-816.351196 -621.614136 -487.048859
-520.159180 553.937866 -480.684845
414.088806 -659.854126 -487.256866
-565.591187 562.181824 -480.640839
-90.255386 -729.534119 -487.632843
74.376610 -843.854126 -488.252838
-404.903198 356.181885 -481.756866
98.360710 -599.174133 -486.928864
119.116814 -812.654175 -488.080841
203.692810 -209.534119 -484.816864
-785.535217 672.581848 -480.044891
-542.079224 -682.934143 -487.380890
-390.795197 -247.894119 -485.024872
199.704803 -278.894104 -485.192841
-73.103386 -313.334106 -485.380890
-558.943176 -543.814148 -486.628876
-632.379211 -194.094116 -484.732880
648.232788 -846.374146 -488.264862
-268.715210 -566.894165 -486.752838
-195.423203 -216.734116 -484.856842
-416.755188 -386.254120 -485.772858
-504.951202 67.390076 -483.320892
-676.719177 -455.014130 -486.144867
-734.683167 613.209839 -480.364838
300.220795 -380.814117 -485.744843
259.748810 -727.534119 -487.620880
-110.827187 -169.414124 -484.600861
-669.519226 230.797882 -482.436859
-493.727203 -753.654175 -487.764862
153.704803 -555.894165 -486.692841
-412.627197 259.389862 -482.280853
-796.355225 528.497864 -480.824860
409.320801 -424.254120 -485.980865
-532.743225 441.061890 -481.296844
-249.743195 -803.894165 -488.036896
-572.335205 -172.174118 -484.616852
-466.659210 -781.534119 -487.912872
-57.631393 -688.214172 -487.408844
-538.095215 447.417877 -481.260895
119.372810 -681.574158 -487.372894
-633.803223 -620.334167 -487.040863
-225.931198 -695.854126 -487.448883
-180.455200 -377.814117 -485.728851
-675.083191 390.217896 -481.572845
-627.211182 -450.134125 -486.120880
-773.231201 444.957886 -481.276886
-16.891390 -805.374146 -488.044891
-454.967194 -484.374115 -486.304840
110.040810 -180.974121 -484.664886
-138.819199 -67.406021 -484.048859
-595.867188 -689.414124 -487.416840
-791.791199 492.133881 -481.020844
-827.483215 -252.814117 -485.052887
480.288818 -819.894165 -488.120880
351.496796 -396.574127 -485.828888
-448.603210 -670.734131 -487.312897
-41.203392 -572.894165 -486.784882
-276.763184 119.041878 -483.040863
-462.743195 293.729889 -482.092865
49.696709 -253.414124 -485.056854
-508.447205 -2.033970 -483.696869
-470.431183 157.597885 -482.832855
-313.091187 -509.934113 -486.444855
-771.303223 -157.314117 -484.536896
65.840706 -386.974121 -485.776886
-473.311188 -750.334167 -487.744843
-515.443176 -66.481926 -484.044891
34.500610 -581.414124 -486.832855
-771.507202 577.905823 -480.556854
-35.023293 -722.614136 -487.596893
-633.459167 392.865875 -481.556854
-340.535187 -4.634020 -483.708893
-678.239197 -189.094116 -484.708893
-586.235168 48.925980 -483.420868
-307.679199 -839.694153 -488.228851
-175.135193 -133.674118 -484.408844
-737.067200 38.769981 -483.472870
-544.843201 531.257874 -480.808868
1.256719 -589.094177 -486.872894
314.240814 -421.494110 -485.964874
-421.411194 -144.350113 -484.464874
143.964798 -503.254120 -486.408844
508.508789 -809.414124 -488.064850
-368.375183 220.105881 -482.492889
222.016800 -519.654175 -486.496857
-717.243225 -598.214172 -486.920868
-790.987183 824.693848 -479.220856
-702.967224 469.501892 -481.144867
-422.835205 455.121887 -481.220856
-655.223206 612.797852 -480.368866
334.324799 -614.814148 -487.012848
-743.027222 -551.214172 -486.668854
-579.971191 330.957886 -481.892853
365.736816 -609.654175 -486.984894
-330.227203 27.618179 -483.532867
-754.499207 753.181824 -479.608856
-415.563202 -336.934113 -485.508881
-417.175201 -277.934113 -485.188873
755.608826 -822.054138 -488.132843
-460.487183 -854.534119 -488.308868
-649.015198 -196.534119 -484.748871
217.948807 -458.494110 -486.164886
-106.483192 21.690180 -483.564850
-367.959198 -122.846123 -484.348846
425.848816 -538.134155 -486.596893
-592.583191 637.241882 -480.236847
133.548798 -467.614105 -486.216888
-253.703186 -207.774109 -484.808868
747.300781 -854.294128 -488.308868
-710.015198 7.558070 -483.644867
-729.099182 -505.334137 -486.420868
-799.035217 595.337830 -480.460846
-529.727173 -428.934113 -486.004852
-483.535187 -169.894119 -484.604889
-379.135193 306.981873 -482.020844
-572.443176 -238.734116 -484.976898
-746.055176 712.397827 -479.828888
-805.907227 -447.894104 -486.108856
-457.723206 -496.414124 -486.368866
-268.875183 -38.198021 -483.888885
-336.567200 61.298080 -483.352875
-173.211197 -623.134155 -487.056854
-784.403198 498.937897 -480.984894
-674.491211 635.777832 -480.244843
-517.631226 -87.010025 -484.156891
-481.039185 -105.218124 -484.252838
-207.087189 -827.174133 -488.160858
-211.115204 -797.374146 -488.000885
-568.659180 467.249878 -481.156891
-49.371292 -179.814117 -484.656891
-674.911194 624.557861 -480.304840
227.564804 -456.134125 -486.152863
-572.479187 -48.325920 -483.944855
-387.867188 -212.774109 -484.836884
50.696709 -744.694153 -487.712860
-575.695190 47.217979 -483.428864
148.864807 -551.294128 -486.668854
-167.607193 -680.814148 -487.368866
-759.671204 -698.694153 -487.464874
-752.979187 563.345825 -480.636871
-406.631195 10.209929 -483.628876
-767.055176 -60.854023 -484.012848
10.020639 -474.374115 -486.252838
-96.667389 -542.934143 -486.620880
-791.271179 306.509888 -482.024872
226.984802 -540.734131 -486.608856
-702.039185 -860.654175 -488.340851
-247.831192 259.925873 -482.276886
275.316803 -429.334106 -486.008881
-608.027222 321.841888 -481.940887
102.976814 -118.730125 -484.324860
290.636810 -764.734131 -487.824860
-170.523193 -396.694122 -485.832855
-730.903198 601.689880 -480.428864
-764.659180 363.785889 -481.716888
-162.755203 170.497879 -482.760895
-271.323181 259.537872 -482.280853
-635.203186 -230.894119 -484.932892
-663.903198 97.182076 -483.156891
663.328796 -780.214172 -487.904877
-453.359192 -234.774109 -484.952850
-492.855194 -809.654175 -488.064850
284.384796 -510.534088 -486.448883
659.212830 -825.494141 -488.152863
264.944794 -739.174133 -487.684845
-669.143188 385.377869 -481.596893
-436.919189 -834.614136 -488.200897
-411.471191 166.889877 -482.780853
-541.735168 -168.174118 -484.592865
-650.275208 -336.134125 -485.504852
-364.915192 110.221878 -483.088898
-495.619202 227.421890 -482.452850
248.640808 -738.934143 -487.684845
-258.703186 -337.454102 -485.508881
-316.775208 6.690151 -483.648895
-821.539185 45.382080 -483.436859
-135.207199 -379.534119 -485.736847
-247.307190 96.769974 -483.160858
-40.339394 -255.974121 -485.068878
-463.131195 -320.094116 -485.416840
-514.783203 -643.614136 -487.168854
66.252609 -654.774170 -487.228851
-533.495178 -101.434128 -484.232880
-568.651184 511.841888 -480.912872
-514.091187 -772.854126 -487.868866
-764.219177 471.617889 -481.132843
-540.783203 -263.774109 -485.112885
-414.155182 -251.454102 -485.044891
-501.115204 -833.414124 -488.192841
-31.855391 -726.614136 -487.616852
-603.635193 415.233887 -481.436859
-631.407227 661.137878 -480.104889
-116.243187 -776.454163 -487.884857
-698.675171 591.785828 -480.480865
-267.855194 282.601898 -482.152863
-638.727173 -478.174103 -486.272858
-708.271179 646.569824 -480.184845
-482.115204 -404.014130 -485.868866
-645.179199 -799.134155 -488.008881
-215.023193 -691.974121 -487.428864
-420.131195 -406.134125 -485.880890
285.052795 -752.294128 -487.756866
-251.367203 -295.494110 -485.284882
638.696777 -833.614136 -488.196869
-443.211182 -3.498121 -483.704865
-251.131195 -187.494110 -484.700897
-744.303223 -277.014130 -485.184845
197.504807 -745.374146 -487.716888
-334.619202 81.774178 -483.240875
-544.999207 147.473877 -482.884857
-344.815186 -705.614136 -487.504852
-354.651184 -221.134109 -484.880890
-356.875183 -15.730021 -483.768890
-731.679199 771.217834 -479.508881
-702.071167 -21.253920 -483.800873
-791.371216 814.553833 -479.276886
112.704811 -650.334167 -487.204865
169.724808 -442.534119 -486.080841
-46.519394 -422.334106 -485.968842
398.328796 -848.414124 -488.276886
-572.967224 122.253876 -483.020844
-437.331207 128.405884 -482.988861
201.268799 -850.974121 -488.288849
469.496796 -588.334167 -486.868866
-319.083191 -789.734131 -487.956879
-43.043293 -33.033920 -483.864838
-758.651184 636.949829 -480.236847
398.052795 -732.374146 -487.648895
-265.391205 -180.174118 -484.660858
-402.251190 108.757874 -483.096893
-431.323181 427.449890 -481.368866
270.252808 -825.134155 -488.148895
-60.615391 -516.054138 -486.476898
-492.627197 -231.254120 -484.936859
-594.459167 148.853882 -482.876862
-650.431213 -244.134109 -485.004852
289.704803 -358.614105 -485.624847
-617.427185 60.053879 -483.360870
-646.799194 -842.854126 -488.244843
-518.095215 -571.414124 -486.776886
-281.155182 -410.774109 -485.908844
446.156799 -857.654175 -488.324860
-252.179199 -217.734116 -484.860870
-24.595291 -336.254120 -485.504852
-407.943207 -634.854126 -487.120880
-412.787201 -626.734131 -487.076874
-642.631226 515.553894 -480.892853
-599.527222 492.977875 -481.016876
-103.075188 -452.694122 -486.132843
-550.483215 404.981873 -481.492889
-775.427185 -817.414124 -488.108856
-255.159210 -393.254120 -485.812897
-637.415222 78.546074 -483.260895
-681.271179 632.033875 -480.264862
-774.715210 575.777832 -480.568878
-743.563171 -761.374146 -487.804840
96.668610 -529.094177 -486.548859
-712.467224 672.837830 -480.040863
-83.279388 -804.374146 -488.036896
-518.775208 -686.894165 -487.400848
114.088814 -806.894165 -488.052887
-787.643188 -862.214172 -488.348846
47.636608 -281.854126 -485.208893
-606.643188 146.453888 -482.892853
-763.967224 -754.734131 -487.768890
-453.955200 -396.694122 -485.832855
370.980804 -424.614105 -485.980865
350.196808 -724.214172 -487.604889
-64.031387 -380.174103 -485.740875
-419.155182 60.018078 -483.360870
-278.511200 -737.374146 -487.672882
-657.147217 380.953888 -481.620880
-480.683197 193.469879 -482.636871
-408.435211 -46.809822 -483.936859
-464.743195 404.861877 -481.492889
489.572815 -868.614136 -488.384857
-822.611206 531.381836 -480.808868
-767.443176 -438.894104 -486.060883
-389.271210 383.049896 -481.612885
-752.367188 204.865891 -482.576874
-538.223206 222.645889 -482.480865
80.268715 -743.174133 -487.704865
-59.295391 -845.414124 -488.260895
303.956818 -407.534119 -485.888885
-505.311188 -673.934143 -487.332855
-591.871216 -501.454102 -486.396881
-622.727173 -651.014160 -487.208893
130.900803 -244.214111 -485.004852
633.868774 -791.814148 -487.968842
-321.647186 -47.225819 -483.940887
-401.587189 425.457886 -481.380890
-477.211182 -403.814117 -485.868866
-715.231201 583.893860 -480.524872
-819.023193 872.693848 -478.960846
-718.063171 -143.362122 -484.460846
-419.887207 -559.774170 -486.712860
43.472507 -836.854126 -488.212860
-798.643188 662.261841 -480.100861
-528.423218 -12.478020 -483.752838
-562.359192 -33.522018 -483.864838
-785.203186 -211.614120 -484.828888
-134.891190 -745.494141 -487.716888
126.460808 -860.454163 -488.340851
-627.731201 75.761879 -483.272858
-556.219177 -232.334122 -484.940887
-358.227203 -29.481922 -483.844879
-412.907196 -564.814148 -486.740875
256.988800 -827.814148 -488.164886
-516.695190 191.925888 -482.644867
-704.839172 517.945862 -480.880890
545.796814 -623.334167 -487.056854
-719.551208 672.769836 -480.044891
-696.327209 -165.894119 -484.580841
-18.583391 -467.214111 -486.212860
-71.971291 -222.974121 -484.892853
-561.807190 372.705872 -481.668854
-679.563171 560.865845 -480.648895
-392.655182 -195.934113 -484.744843
11.388559 -524.694153 -486.524872
-510.599182 -531.974121 -486.564850
-631.723206 -732.094177 -487.644867
-128.315201 131.793884 -482.968842
-550.499207 -84.473923 -484.140839
-766.075195 412.997894 -481.448883
-267.419189 -281.734131 -485.208893
281.156799 -584.334167 -486.844879
-129.943192 -785.374146 -487.932892
-391.155182 -845.654175 -488.260895
298.996796 -468.614105 -486.220856
-797.267212 652.593872 -480.152863
420.160797 -805.454163 -488.044891
3.860723 -185.614120 -484.688873
-496.591187 -736.974121 -487.672882
465.116791 -522.174133 -486.508881
-686.411194 225.029877 -482.464874
-156.739197 -337.174103 -485.508881
-814.091187 -258.494110 -485.084869
-641.167175 -392.334106 -485.808868
-86.943390 -90.153824 -484.172882
-209.839203 95.242172 -483.168854
-466.379211 142.337891 -482.912872
547.036804 -706.254150 -487.504852
-706.211182 -192.094116 -484.724884
-296.827209 124.205879 -483.012848
-151.919189 -255.014130 -485.064850
-551.519226 -357.134125 -485.616852
-365.547211 -755.934143 -487.776886
-273.287201 -205.174118 -484.792877
-83.391388 -727.974121 -487.624847
-207.283203 -126.366127 -484.368866
545.736816 -750.294128 -487.744843
-345.563202 -695.934143 -487.448883
-544.499207 254.693878 -482.304840
601.296814 -723.614136 -487.600861
-823.179199 -682.614136 -487.376862
-617.251221 -92.537926 -484.184845
112.900810 -610.934143 -486.988861
476.252808 -596.334167 -486.912872
464.620789 -714.054138 -487.548859
-678.919189 154.629883 -482.848846
-187.191193 124.057877 -483.012848
-304.535187 -110.518127 -484.280853
-334.719208 -25.549820 -483.820892
-286.487183 243.313889 -482.368866
-390.851196 -857.854126 -488.328888
156.704803 -744.174133 -487.712860
437.184814 -619.654175 -487.036896
-609.499207 -286.614105 -485.236847
-176.227203 -658.614136 -487.248871
-25.319290 -156.854111 -484.532867
-592.335205 100.709877 -483.140839
-802.991211 602.165833 -480.424896
-138.535202 62.858078 -483.344879
753.364807 -803.774170 -488.032867
-280.591187 0.905969 -483.680878
136.248810 -554.774170 -486.684845
437.544800 -601.614136 -486.940887
-813.807190 795.813843 -479.376862
-731.559204 261.529877 -482.268890
-794.251221 -136.210114 -484.420868
-543.515198 270.249878 -482.220856
-723.815186 356.549896 -481.752838
-681.591187 -616.494141 -487.020844
468.420807 -762.054138 -487.808868
-426.647186 -412.694122 -485.916840
-484.347198 -731.174133 -487.640839
136.704803 -805.414124 -488.044891
-541.443176 -289.374115 -485.248871
-293.163208 -312.654114 -485.376862
397.956818 -430.214111 -486.012848
-577.603210 -118.626122 -484.324860
-467.395203 273.137878 -482.204865
-268.455200 -61.594021 -484.016876
-565.095215 -450.734131 -486.124847
-124.603188 -287.694122 -485.240875
27.108509 -860.334167 -488.340851
-610.427185 -506.054108 -486.424896
-790.167175 24.561979 -483.552887
-392.111206 -302.134125 -485.320892
-496.791199 -217.534119 -484.860870
-347.955200 252.961884 -482.316864
-607.931213 183.349884 -482.692841
-488.479187 188.405884 -482.664886
178.696808 -184.814117 -484.684845
491.544800 -627.214172 -487.076874
511.516815 -731.894165 -487.644867
184.784805 -564.254150 -486.736847
-800.955200 350.593872 -481.784882
-517.543213 -190.294113 -484.712860
434.264801 -713.094177 -487.544891
239.316803 -293.294128 -485.272858
-737.711182 -653.974121 -487.224884
-610.019226 178.361877 -482.716888
301.176819 -743.654175 -487.708893
-659.091187 572.721863 -480.584869
-140.159195 162.097885 -482.804840
-600.199219 426.489899 -481.376862
-311.139191 -407.334106 -485.888885
-192.143204 130.129883 -482.980865
203.924805 -592.374146 -486.888885
797.176819 -849.894165 -488.284882
-546.595215 -455.214111 -486.148895
203.044800 -244.414124 -485.008881
-129.611191 45.861980 -483.436859
-273.443207 -638.254150 -487.136871
-48.587391 -424.774109 -485.984894
367.960815 -388.094116 -485.784882
193.692810 -573.774170 -486.788849
-436.615204 -410.734131 -485.908844
182.232803 -849.574158 -488.280853
-95.959389 -539.974121 -486.604889
5.272589 -504.694122 -486.416840
47.476707 -608.814148 -486.980865
-767.407227 -442.534119 -486.080841
77.304611 -355.414124 -485.608856
218.096802 -316.334106 -485.396881
-370.503204 281.425873 -482.160858
-150.775192 -629.094177 -487.088898
122.980812 -728.974121 -487.628876
133.516800 -768.734131 -487.844879
275.408813 -394.694122 -485.820892
-620.535217 419.601898 -481.412872
318.708801 -535.254150 -486.580841
-483.399200 264.621887 -482.252838
-449.807190 -275.094116 -485.172882
-62.755390 -643.734131 -487.168854
-692.999207 119.093880 -483.040863
-642.727173 -24.790121 -483.816864
-552.379211 448.773895 -481.256866
-64.683388 -610.974121 -486.992889
-395.091187 -754.054138 -487.764862
-800.427185 -207.854111 -484.808868
-191.447189 -303.174103 -485.324860
-118.391190 -242.374115 -484.996857
202.804810 -350.574127 -485.580841
-62.591290 -8.658020 -483.732880
-476.987183 -470.374115 -486.228851
409.080811 -492.814117 -486.352875
-344.207184 342.445892 -481.828888
-716.863220 -58.094021 -483.996857
-706.619202 732.917847 -479.716888
-750.339172 283.385895 -482.148895
-765.631226 28.353979 -483.528839
299.304810 -358.054108 -485.620880
-275.435211 -594.774170 -486.904877
-135.983200 11.769989 -483.620880
-284.407196 -98.170128 -484.216888
102.296715 -220.854111 -484.880890
427.596802 -770.614136 -487.852875
-604.751221 -552.654175 -486.676849
-191.803192 -778.654175 -487.896881
-704.615173 -661.294128 -487.264862
-645.039185 345.521881 -481.812897
-490.967194 21.942080 -483.564850
-385.383209 33.489979 -483.504852
-334.563202 43.497978 -483.448883
-382.347198 268.489899 -482.232880
-31.059290 -116.222122 -484.312897
13.704708 -708.214172 -487.516876
520.976807 -797.814148 -488.000885
376.960815 -612.734131 -487.000885
340.852814 -681.694153 -487.372894
165.248810 -591.174133 -486.884857
501.476807 -653.094177 -487.216888
-514.967224 -300.494110 -485.308868
-476.331207 -417.454102 -485.944855
73.212509 -726.094177 -487.612885
429.276794 -657.174133 -487.240875
-394.415192 -257.974121 -485.080841
-419.999207 -443.974121 -486.088898
146.228806 -467.654114 -486.216888
-391.391205 -798.134155 -488.004852
-84.983391 -581.414124 -486.828888
276.152802 -572.334167 -486.780853
-575.415222 452.485870 -481.236847
-210.179199 -423.294128 -485.976898
-502.719208 -750.694153 -487.748871
-826.515198 756.993835 -479.588898
-797.271179 -645.094177 -487.176849
-618.831177 -252.654114 -485.052887
-320.355194 157.625885 -482.832855
-158.187195 -165.854111 -484.580841
-82.515388 -546.654175 -486.640839
-737.515198 295.169891 -482.084869
377.664795 -719.094177 -487.576874
-366.307190 249.489883 -482.332855
-759.703186 -769.814148 -487.848846
-258.047211 283.137878 -482.152863
-284.079193 -47.245922 -483.940887
146.060806 -632.934143 -487.108856
140.516800 -514.374146 -486.468842
-232.187195 -533.574158 -486.572845
-464.835205 -382.374115 -485.752838
-80.903290 -476.374115 -486.260895
-743.439209 -521.014160 -486.504852
-787.047180 -812.094177 -488.080841
-481.263184 -207.094116 -484.804840
-404.223206 -461.414124 -486.180878
-368.935211 -119.438126 -484.328888
-58.355392 -331.174103 -485.476898
373.200806 -745.054138 -487.716888
-359.211182 -721.934143 -487.592865
-529.903198 380.397888 -481.624847
-233.003189 -477.854126 -486.268890
90.260612 -114.170128 -484.300873
-163.791199 -250.334106 -485.040863
572.324829 -786.614136 -487.940887
-324.367188 51.630081 -483.404877
531.944824 -719.094177 -487.576874
85.948608 -291.614105 -485.260895
164.004807 -428.374115 -486.000885
-673.099182 685.661865 -479.972870
-640.079224 -435.334106 -486.040863
-411.139191 -667.854126 -487.296844
-384.847198 -93.410126 -484.188873
-586.875183 -183.214111 -484.676849
-115.755188 -259.734131 -485.088898
-727.159180 204.901886 -482.576874
-161.659195 -725.414124 -487.608856
-198.951202 58.974079 -483.364838
-444.503204 -354.494110 -485.600861
-533.147217 -194.734116 -484.736847
171.960800 -187.814117 -484.700897
-510.331177 -119.174126 -484.328888
-273.499207 -151.570114 -484.504852
-372.783203 351.729889 -481.780853
-671.783203 -537.854126 -486.596893
-386.263184 -317.854126 -485.404877
-789.351196 309.113892 -482.012848
-466.739197 70.318077 -483.304840
-825.183167 360.105896 -481.736847
-248.147202 -846.334167 -488.264862
-201.755203 -779.214172 -487.900848
-161.191193 -537.534119 -486.592865
145.644806 -691.414124 -487.424896
-246.767197 -643.094177 -487.164886
-109.623192 -12.305920 -483.748871
-170.151199 -127.074120 -484.372894
204.384796 -462.334106 -486.184845
-788.695190 -720.854126 -487.584869
-4.115351 -78.221924 -484.108856
-707.915222 -737.974121 -487.676849
529.800781 -864.094177 -488.360870
-278.179199 77.746078 -483.264862
-507.195190 -372.654114 -485.700897
-716.123169 -424.214111 -485.980865
463.004791 -561.334167 -486.720856
-777.159180 812.569824 -479.284882
-597.171204 -622.894165 -487.056854
-763.379211 -547.934143 -486.648895
272.172791 -324.854126 -485.440887
-125.795189 -703.414124 -487.492889
-460.567200 -758.894165 -487.792877
-488.967194 452.753876 -481.232880
-688.523193 195.941879 -482.624847
-530.235168 -448.174103 -486.108856
-630.527222 -682.014160 -487.376862
579.212830 -750.174133 -487.744843
269.992798 -866.414124 -488.372894
-403.411194 109.317879 -483.092865
193.784805 -572.014160 -486.780853
-672.271179 354.137878 -481.768890
-362.291199 -590.414124 -486.880890
-571.883179 -576.734131 -486.804840
-244.599197 62.766079 -483.344879
-47.635391 -57.270020 -483.992889
-606.087219 -403.174103 -485.864838
-545.523193 -278.254120 -485.188873
-397.919189 -71.334023 -484.068878
-49.479393 -827.694153 -488.164886
100.460609 -249.974121 -485.036896
-808.683167 -127.710121 -484.376862
-644.935181 300.033875 -482.060883
-602.403198 374.061890 -481.660858
-826.735168 129.533875 -482.984894
-251.423203 246.921890 -482.348846
-210.035202 40.390079 -483.464874
48.288708 -426.454102 -485.992889
473.240814 -652.974121 -487.216888
62.892708 -838.814148 -488.224884
452.792816 -489.894104 -486.336884
-257.947205 -375.494110 -485.716888
-666.855225 27.910080 -483.532867
-515.371216 141.073883 -482.920868
-688.591187 53.549980 -483.392853
459.640808 -526.974121 -486.536896
