ply
format ascii 1.0
element vertex 1385
property float x
property float y
property float z
end_header
861.602234 -2000.636841 -119.509399
864.810242 -1996.607056 -138.136398
885.453247 -1918.607056 -124.586395
871.488220 -1973.426880 -120.319397
874.363220 -1962.016968 -115.416397
878.153259 -1949.986938 -132.889389
883.685242 -1924.347046 -104.596390
881.813232 -1876.146973 -51.996494
886.318237 -1906.876831 -96.306396
885.513245 -1893.636841 -82.221390
872.678223 -1915.246948 -45.256397
881.173218 -1914.107056 -79.974396
883.328247 -1923.156860 -97.046387
878.110229 -1930.327026 -82.809402
874.518250 -1928.327026 -65.014389
869.565247 -1965.656860 -86.639389
872.953247 -1963.337036 -99.694397
882.053223 -1932.786987 -112.669388
855.928223 -1981.176880 -72.539398
854.668213 -1970.117065 -57.834400
858.535217 -1979.256958 -75.834396
851.965210 -1986.126831 -69.166397
849.478210 -1985.006958 -62.909397
858.335205 -1982.236938 -78.589401
864.200256 -1990.337036 -100.249390
845.270203 -2032.876831 -108.511398
837.153259 -2002.456909 -62.651394
785.265259 -2026.126831 -58.191395
794.318237 -2020.646851 -57.696400
785.750244 -2023.786987 -56.238995
820.830200 -2031.087036 -81.151398
809.565247 -2015.526978 -60.736393
823.775208 -2032.567017 -84.066391
829.990234 -1996.226929 -53.106495
753.933228 -2056.626953 -68.626404
778.725220 -2062.097168 -86.141388
765.170227 -2034.126831 -55.351398
777.410217 -2059.247070 -83.039398
760.140259 -2079.957031 -91.651398
760.738220 -2077.136963 -89.571396
830.220215 -2043.936890 -97.456390
809.718201 -2057.427002 -98.784393
795.548218 -2066.827148 -101.139389
786.045227 -2076.197021 -112.489395
812.993225 -2058.577148 -108.819397
737.467224 -2042.426880 -52.258900
750.287231 -2062.376953 -71.766403
689.088257 -2075.217041 -69.549393
656.917236 -2086.357178 -72.074402
677.505249 -2088.957031 -78.644394
658.445251 -2067.777100 -56.774395
696.933228 -2052.906982 -52.453999
703.958252 -2078.827148 -75.749390
727.417236 -2056.777100 -62.194393
679.683228 -2057.797119 -52.893894
742.335205 -2058.156982 -66.526398
595.418213 -2080.487061 -54.049000
613.185242 -2079.217041 -56.758900
717.685242 -2066.396973 -68.216400
738.195251 -2070.787109 -76.271393
574.630249 -2130.847168 -82.906403
572.460205 -2104.197021 -65.564392
569.810242 -2131.767090 -82.426392
604.175232 -2127.497070 -87.304398
661.890259 -2105.337158 -85.999390
698.385254 -2093.557129 -86.589386
691.768250 -2097.396973 -87.561386
592.720215 -2135.267090 -89.696396
602.107239 -2119.597168 -81.846390
682.698242 -2107.077148 -91.689392
673.700256 -2115.587158 -95.091400
576.070251 -2138.767090 -88.236389
595.225220 -2103.386963 -70.074402
564.650208 -2149.457031 -92.484390
683.100220 -2097.047119 -85.431396
672.665222 -2105.727051 -88.624390
563.718201 -2095.367188 -58.051395
712.010254 -2109.747070 -106.896393
719.110229 -2108.357178 -110.341400
719.193237 -2107.777100 -108.569397
739.693237 -2101.847168 -112.421387
607.863220 -2145.947021 -106.696396
731.040222 -2104.916992 -112.614395
117.997223 -2225.287109 -108.856400
69.850525 -2221.457031 -104.666397
72.634224 -2227.727051 -109.094391
10.287523 -2233.277100 -110.939392
10.730923 -2221.677002 -102.934387
160.964233 -2213.817139 -98.099396
193.679230 -2217.876953 -103.086395
195.068222 -2218.807129 -104.129395
185.174225 -2219.427002 -104.621399
109.569221 -2216.617188 -100.229385
214.444229 -2225.427002 -111.649399
738.283203 -1780.466919 173.255600
741.873230 -1770.576904 176.103607
748.688232 -1610.946899 216.163605
747.695251 -1639.946899 210.413605
746.758240 -1194.046997 259.768585
752.018250 -1239.716919 255.315613
751.205200 -1083.746948 270.515594
747.740234 -1497.756958 230.173615
754.105225 -1222.646973 256.980591
746.360229 -1504.276978 229.535614
755.835205 -1119.406982 267.040588
751.103210 -1412.756958 238.448608
756.808228 -1261.596924 253.168610
753.160217 -1390.966919 240.563614
754.758240 -1257.896973 253.540604
753.165222 -983.456970 280.710602
760.090210 -994.436951 278.828613
750.445251 -957.196960 283.285614
749.905212 -1766.786987 174.423615
758.588257 -1710.396973 188.800613
756.258240 -1754.866943 175.445602
758.435242 -1739.236938 179.533600
774.343201 -1688.726929 188.780609
753.243225 -1695.196899 196.113602
772.298218 -1667.766968 196.480606
775.955200 -1770.136963 170.123596
765.793213 -1750.036987 174.355606
786.945251 -1719.336914 180.530609
775.390259 -1814.446899 160.975601
786.513245 -1660.156982 192.761612
762.157227 -1795.936890 164.903610
767.500244 -1739.106934 176.600601
770.688232 -1726.026978 179.278610
780.725220 -1720.416992 180.358612
755.890259 -1599.596924 216.375610
754.275208 -1615.416992 213.853607
758.073242 -1628.526978 208.535614
754.833252 -1626.736938 210.970612
780.603210 -1627.126953 201.201614
771.355225 -1643.136963 201.463608
778.795227 -1569.016968 208.975601
784.967224 -1581.296997 205.903610
772.510254 -1648.216919 200.535614
779.145203 -1576.846924 207.900604
763.040222 -1143.516968 262.260590
755.890259 -1493.886963 229.730606
776.165222 -1031.466919 266.460602
760.610229 -1353.786987 241.673615
758.777222 -1411.976929 236.638611
762.028259 -1370.276978 239.135605
769.295227 -1143.646973 258.665588
765.193237 -1274.606934 247.325607
763.270203 -1187.206909 257.563599
758.105225 -1211.736938 257.955597
759.503235 -1363.366943 241.303604
761.603210 -1252.296997 251.713608
758.568237 -1215.316895 257.315613
763.500244 -1344.196899 241.020615
770.620239 -1201.427002 251.868607
774.395203 -1064.036987 264.068604
775.188232 -1270.216919 242.715607
763.633240 -1561.376953 219.558609
778.412231 -1311.956909 237.308609
774.220215 -1445.376953 226.225601
767.230225 -1383.596924 235.175613
775.923218 -1445.807007 225.455612
784.708252 -1169.716919 248.345612
773.660217 -1407.177002 230.153610
781.200256 -1136.396973 253.060608
786.525208 -1370.546997 228.185608
784.285217 -1354.226929 230.718613
784.403259 -1143.116943 251.043610
763.778259 -1540.636963 221.498611
770.453247 -1490.786987 223.453613
785.483215 -1194.626953 245.610611
775.417236 -1525.986938 217.933609
780.455200 -1465.057007 221.660614
768.395203 -1320.486938 240.770615
775.780212 -1325.366943 237.140610
775.738220 -1340.786987 235.670609
781.870239 -1439.726929 223.500610
776.213257 -940.797058 274.555603
779.245239 -941.757019 272.863586
773.282227 -1005.816956 270.613586
776.110229 -989.877014 270.448608
813.222229 -1664.346924 169.143600
817.385254 -1647.476929 164.778610
821.678223 -1566.616943 175.585602
814.243225 -1672.706909 165.055603
812.700256 -1651.986938 173.183609
824.725220 -1635.236938 160.073608
829.355225 -1616.286987 158.838608
829.850220 -1615.476929 158.598602
823.675232 -1468.166992 182.805603
816.313232 -1503.126953 192.003601
827.575256 -1439.436890 179.233612
827.402222 -1436.996948 179.865601
817.773254 -1456.436890 195.250610
826.990234 -1481.807007 176.143600
827.590210 -1517.786987 172.408600
827.860229 -1505.326904 173.045609
826.765259 -1047.256958 198.985611
814.530212 -1042.646973 221.693604
812.658203 -1164.566895 218.895615
811.680237 -1048.616943 226.625610
809.018250 -1078.106934 230.005600
810.005249 -1235.136963 220.158600
815.520203 -1150.796997 214.340607
809.630249 -1194.116943 222.943604
825.290222 -1008.737000 203.663605
822.998230 -1131.286987 201.605606
810.912231 -1111.776978 224.800613
816.270203 -1206.396973 210.118607
815.058228 -1118.066895 216.865601
810.308228 -1128.906982 225.035614
828.075256 -1012.436951 198.358612
814.370239 -1038.196899 222.215607
819.460205 -1162.976929 206.483612
815.412231 -1074.716919 218.433609
819.535217 -1244.557007 202.168610
815.015259 -1207.057007 212.390610
824.588257 -1354.427002 189.238602
829.905212 -1225.956909 186.133606
826.988220 -1236.486938 190.403610
822.485229 -1384.096924 191.370605
827.243225 -1180.036987 192.408600
822.573242 -1250.966919 196.925613
826.995239 -1242.866943 190.118607
825.183228 -1141.736938 197.383606
827.883240 -1036.046997 197.538605
824.105225 -1409.466919 187.663605
828.135254 -1324.976929 184.758606
817.920227 -1353.626953 200.058609
824.335205 -1280.866943 192.795609
822.755249 -1367.596924 191.638611
830.632202 -1309.666992 181.375610
828.195251 -1358.136963 183.243607
821.273254 -972.127014 212.240601
823.227234 -998.586975 207.933609
817.350220 -987.066956 219.013611
808.113220 -941.846985 237.053604
808.993225 -992.466980 234.153610
813.613220 -961.226990 226.518600
791.205200 -1770.436890 166.643600
791.280212 -1704.046997 182.118607
800.535217 -1641.896973 187.398605
804.847229 -1617.466919 188.798615
796.270203 -1702.226929 177.543610
809.125244 -1709.936890 164.225601
805.740234 -1715.776978 165.883606
789.430237 -1791.916992 163.443604
796.277222 -1748.246948 167.013611
804.102234 -1524.046997 203.340607
799.375244 -1515.966919 207.180603
799.238220 -1526.307007 206.010605
806.910217 -1571.416992 194.325607
811.060242 -1484.846924 203.515610
804.623230 -1540.536987 200.665604
802.750244 -1590.066895 194.998611
797.005249 -1430.106934 214.470612
799.120239 -1462.376953 211.585602
800.038208 -1427.826904 213.265610
803.528259 -1277.876953 220.773605
807.180237 -1271.846924 219.518600
806.765259 -1402.246948 211.830612
808.238220 -1368.416992 213.220612
806.988220 -1393.786987 212.243607
794.860229 -1445.486938 214.490601
809.387207 -1371.936890 212.498611
808.355225 -1243.016968 220.740601
787.905212 -1296.886963 234.540604
790.398254 -1444.346924 218.410614
797.480225 -1148.266968 235.803604
803.110229 -1149.057007 228.750610
793.985229 -1299.516968 226.765610
796.490234 -1150.146973 236.863602
790.935242 -1407.146973 221.030609
786.558228 -1067.626953 256.478607
794.775208 -1113.386963 242.243607
797.340210 -1197.126953 231.655609
798.870239 -1153.956909 233.575607
801.448242 -1082.266968 236.718613
794.395203 -1359.586914 220.948608
797.893250 -1183.576904 232.168610
787.613220 -1139.696899 248.800613
800.305237 -1062.566895 239.875610
796.775208 -1151.646973 236.378601
791.785217 -1068.946899 249.880600
794.695251 -1374.736938 219.235611
798.478210 -940.586975 250.515610
806.832214 -996.206970 237.398605
800.267212 -1001.797058 245.273605
788.385254 -969.527039 262.705597
799.157227 -1001.696960 246.655609
857.948242 -1526.436890 115.583496
855.160217 -1629.906982 110.573502
868.053223 -1519.816895 98.368500
860.333252 -1596.226929 104.668602
863.993225 -1535.316895 104.053505
864.870239 -1601.486938 92.501007
867.897217 -1589.276978 87.173508
855.368225 -1640.446899 109.070999
861.080200 -1619.677002 98.386002
866.683228 -1448.376953 106.823502
862.720215 -1473.936890 111.708496
864.753235 -1455.626953 109.630997
867.852234 -1477.807007 102.316002
859.085205 -1420.626953 122.026001
861.950256 -1447.626953 115.085999
859.078247 -1402.066895 123.433502
857.615234 -1406.246948 125.626007
849.505249 -1493.656982 135.568497
850.618225 -1466.807007 135.118500
850.353210 -1480.076904 134.736008
845.073242 -1418.677002 150.278610
847.600220 -1467.486938 141.486008
850.283203 -1420.206909 139.138504
846.638245 -1592.946899 132.026108
845.758240 -1523.276978 141.038605
845.598206 -1588.406982 134.706009
854.417236 -1571.996948 117.716110
850.595215 -1607.366943 122.226105
854.833252 -1569.736938 117.068497
844.475220 -1623.736938 133.488510
879.125244 -1638.086914 50.028564
876.820251 -1620.076904 60.571003
879.148254 -1646.427002 48.261044
878.295227 -1675.606934 44.841064
876.345215 -1589.586914 68.211105
877.040222 -1696.186890 44.376034
871.948242 -1594.506958 77.161102
875.020203 -1634.966919 62.621002
874.215210 -1554.686890 80.320999
869.665222 -1604.696899 79.941101
870.970215 -1587.807007 80.558502
865.118225 -1688.786987 72.766006
872.790222 -1700.896973 54.181004
872.375244 -1645.156982 66.163506
879.438232 -1780.406982 -13.883896
880.605225 -1756.956909 -17.781395
880.993225 -1709.386963 8.693504
882.060242 -1665.446899 20.796003
880.607239 -1746.886963 -10.806396
881.565247 -1739.786987 -22.491497
881.713257 -1707.206909 -2.311398
878.570251 -1760.376953 2.701004
879.090210 -1741.136963 8.436005
879.592224 -1662.696899 43.393551
878.588257 -1702.076904 31.233503
875.820251 -1720.786987 41.896053
879.847229 -1700.636963 22.911104
877.955200 -1717.186890 28.353504
881.428223 -1665.177002 29.001003
893.550232 -1861.206909 -128.709396
893.622253 -1856.486938 -137.316391
858.030212 -1209.226929 131.981003
858.745239 -1111.346924 135.486099
858.390259 -1039.886963 140.951004
857.313232 -1260.296997 131.293503
861.283203 -1098.836914 127.851105
857.415222 -1287.386963 129.323502
856.838257 -1228.196899 134.788605
861.100220 -1159.736938 124.796005
863.308228 -1032.756958 125.121002
862.975220 -1117.916992 121.111008
856.815247 -1210.566895 135.913498
857.727234 -1245.516968 130.803497
861.445251 -1074.286987 128.786011
862.048218 -1293.966919 119.673599
865.938232 -1350.256958 112.406006
861.050232 -1354.536987 120.728500
869.960205 -1350.726929 105.511002
867.053223 -1259.466919 111.476105
862.853210 -1218.336914 119.116104
862.840210 -1325.776978 117.973602
866.753235 -1115.326904 113.553604
858.400208 -1290.266968 125.958496
865.120239 -1282.516968 114.538498
865.482239 -1325.886963 113.448502
865.140259 -1077.246948 116.728500
868.628235 -1374.986938 107.533600
866.270203 -1362.057007 111.708496
861.740234 -969.257019 132.398605
860.065247 -974.867004 137.928497
861.665222 -977.537048 132.641006
865.835205 -979.907043 118.853500
846.817200 -1233.776978 155.625610
843.835205 -1096.086914 165.908600
843.230225 -1396.666992 155.663605
852.378235 -1069.266968 152.260605
850.550232 -1186.096924 151.013611
844.945251 -1158.296997 161.670609
853.303223 -1094.177002 149.738602
852.770203 -1011.566956 153.753601
853.325256 -1015.777039 152.643600
850.323242 -1179.156982 151.663605
845.390259 -1124.206909 162.183609
848.437256 -1035.506958 160.288605
854.850220 -1226.706909 139.916107
856.110229 -1191.586914 139.076004
856.920227 -1025.596924 146.005600
853.528259 -1392.046997 134.111099
856.600220 -1107.186890 142.433609
851.648254 -1200.096924 148.080597
853.908203 -1144.456909 146.193604
854.083252 -1286.096924 138.448502
854.837219 -1386.016968 131.651108
852.253235 -1269.276978 143.198502
850.330200 -1251.846924 148.178604
850.705200 -986.606995 157.795609
852.050232 -978.346985 155.493607
843.660217 -980.537048 170.233597
854.465210 -946.086975 151.500610
871.275208 -1104.246948 99.121002
870.100220 -1228.576904 106.413605
871.388245 -1203.826904 100.473503
870.140259 -1029.346924 102.566002
870.382202 -1208.886963 104.853607
868.995239 -1107.986938 108.903610
869.443237 -1092.086914 106.698502
870.300232 -1119.126953 103.546005
872.628235 -1182.816895 96.426003
872.345215 -1081.226929 94.898605
873.080200 -1286.066895 97.736099
873.653259 -1237.066895 95.953506
876.053223 -1233.576904 92.351105
875.168213 -1185.636963 92.736008
880.158203 -1265.746948 86.911102
875.840210 -1060.557007 81.771004
880.043213 -1153.746948 71.811005
879.030212 -1109.886963 71.051102
878.605225 -1169.376953 82.238602
880.365234 -1063.906982 56.711105
877.938232 -1057.646973 69.498505
877.758240 -1055.026978 70.118500
878.472229 -1203.346924 87.998604
879.680237 -1141.916992 72.103500
879.310242 -1212.386963 84.616005
875.305237 -1079.976929 87.668602
876.527222 -1077.596924 80.413605
878.798218 -1074.427002 67.111099
878.988220 -1196.486938 84.081009
875.910217 -1062.936890 81.733505
882.698242 -1200.706909 59.298603
881.345215 -1100.396973 55.636002
882.740234 -1218.966919 61.663605
881.905212 -1132.826904 55.801003
882.260254 -1131.086914 52.621094
882.808228 -1128.266968 47.676025
881.325256 -1120.896973 58.828503
882.322205 -1197.146973 61.886002
883.988220 -1055.466919 26.141003
882.908203 -1070.726929 38.013542
884.463257 -1165.076904 39.188534
885.798218 -1034.166992 6.931004
884.228210 -1044.726929 22.366003
881.615234 -1002.826965 38.678524
883.207214 -1089.826904 38.383545
883.428223 -1018.066956 25.176003
884.748230 -1026.356934 14.916004
882.480225 -1015.027039 33.008503
882.223206 -1067.566895 43.511044
885.958252 -1107.576904 15.063503
887.110229 -1046.996948 -4.411495
885.250244 -1145.216919 27.061104
886.530212 -1128.366943 4.641003
886.470215 -1131.606934 5.656105
884.652222 -1171.516968 37.231071
887.820251 -1083.576904 -17.491497
891.225220 -1004.726990 -37.873997
897.933228 -1010.456970 -79.814392
900.420227 -1002.297058 -95.329391
888.315247 -1081.716919 -23.851398
893.387207 -1041.136963 -53.003994
898.120239 -1035.536987 -81.839401
893.358215 -1053.016968 -53.426495
889.832214 -1083.016968 -33.241497
891.975220 -1044.557007 -44.493999
892.895203 -1016.316956 -48.723896
894.912231 -1046.856934 -62.676395
896.063232 -1041.466919 -69.491394
902.715210 -1022.316956 -112.374390
903.765259 -990.017029 -125.716400
903.763245 -988.196960 -125.674393
902.593201 -965.096985 -110.741394
902.507202 -986.716980 -109.646393
868.995239 -977.147034 106.861099
870.707214 -981.807068 99.570999
870.925232 -979.336975 98.651108
874.035217 -940.826965 82.695999
878.535217 -978.117004 57.283504
878.952209 -948.186951 54.923603
873.938232 -984.517029 83.248505
874.315247 -995.137024 81.113602
874.070251 -955.617004 82.493500
887.678223 -992.497009 -15.248898
882.860229 -954.066956 26.991104
882.573242 -949.497009 29.513504
887.028259 -983.737000 -9.533897
881.400208 -997.417053 39.791073
884.855225 -984.226990 9.503502
881.628235 -945.777039 37.798523
881.027222 -995.336975 43.043575
890.198242 -940.667053 -31.426495
893.568237 -947.816956 -52.486500
899.948242 -987.397034 -92.356400
895.095215 -966.167053 -62.039394
893.167236 -941.877014 -49.983997
889.850220 -973.086975 -29.258900
899.847229 -991.346985 -91.731400
889.488220 -981.586975 -26.993999
891.173218 -973.017029 -37.523899
893.597229 -979.456970 -52.668995
891.105225 -994.956970 -37.096394
883.873230 -1070.576904 -140.509399
887.423218 -1097.536987 -101.509399
888.113220 -1091.196899 -110.054398
897.335205 -1079.057007 -126.419388
879.022217 -1082.046997 -122.396393
880.002258 -1117.526978 -74.566391
881.708252 -1104.506958 -92.121399
876.620239 -1125.156982 -64.281403
872.513245 -1123.146973 -66.989395
903.010254 -1116.876953 -75.436401
880.945251 -1137.946899 -54.508900
858.495239 -1128.796997 -61.484394
886.000244 -1150.846924 -44.671497
889.200256 -1126.506958 -63.229397
887.825256 -1142.366943 -51.138897
856.800232 -1186.026978 -17.908897
863.273254 -1154.586914 -41.833897
875.613220 -1167.336914 -32.101398
866.623230 -1164.296997 -34.431499
891.488220 -1252.566895 15.978603
896.378235 -1238.096924 10.061005
892.430237 -1238.046997 10.038605
887.650208 -1251.557007 15.563503
870.253235 -1222.376953 3.598503
856.292236 -1233.736938 8.178604
855.530212 -1281.307007 27.531103
852.780212 -1282.276978 27.906002
893.345215 -1295.766968 33.646053
856.303223 -1244.976929 12.751003
901.088257 -1274.796997 25.098604
860.708252 -1311.677002 36.213493
872.270203 -1310.177002 36.043514
864.525208 -1328.526978 38.396053
890.423218 -1322.166992 37.626034
888.015259 -1326.006958 38.116081
854.102234 -1398.246948 47.296013
859.805237 -1329.286987 38.476013
875.470215 -1356.386963 42.006042
855.410217 -1329.936890 38.543571
884.457214 -1397.656982 47.328552
897.505249 -1464.786987 39.008545
884.247253 -1464.406982 39.101074
866.147217 -1422.756958 44.511044
882.348206 -1451.966919 40.706055
891.190247 -1417.076904 45.151054
872.928223 -1471.366943 38.263542
863.260254 -1431.756958 43.368587
877.698242 -1471.846924 38.178524
862.488220 -1437.546997 42.631039
887.425232 -1559.016968 10.816002
897.435242 -1558.866943 10.721104
870.893250 -1512.807007 29.711103
886.103210 -1523.936890 24.988503
880.683228 -1547.336914 15.628504
863.403259 -1560.436890 10.666004
870.283203 -1554.856934 12.783604
851.910217 -1524.086914 25.481104
885.360229 -1585.427002 0.223503
855.545227 -1556.126953 12.538603
900.590210 -1527.286987 23.418604
901.355225 -1560.596924 9.963604
873.157227 -1729.916992 -131.751389
899.478210 -1636.716919 -35.363995
867.648254 -1619.046997 -21.041500
901.642212 -1646.816895 -43.003994
884.428223 -1599.906982 -7.278896
899.730225 -1632.936890 -32.538898
857.790222 -1657.106934 -49.088993
891.495239 -1657.836914 -50.908894
892.250244 -1671.136963 -60.874393
855.903259 -1676.396973 -63.426395
892.428223 -1667.057007 -57.829395
903.440247 -1044.966919 -117.931396
898.673218 -1733.076904 -137.376389
897.123230 -1095.916992 -65.711395
904.558228 -1122.756958 -65.514389
898.050232 -1105.906982 -56.819393
902.050232 -1098.816895 -85.446396
898.857239 -1051.646973 -87.989395
892.738220 -1081.106934 -51.843899
903.795227 -1054.786987 -121.384399
896.512207 -1056.186890 -73.081390
903.240234 -1056.836914 -118.006393
893.440247 -1078.956909 -56.188900
898.103210 -1193.956909 5.153603
892.928223 -1170.686890 6.438503
899.635254 -1156.656982 -25.246494
891.595215 -1179.496948 16.821003
891.375244 -1190.206909 24.826004
892.232239 -1161.296997 2.346004
891.998230 -1158.126953 1.233604
894.688232 -1130.186890 -25.201496
889.255249 -1153.006958 7.721004
894.940247 -1152.746948 -12.351398
898.148254 -1125.256958 -40.316494
897.667236 -1112.336914 -46.491497
887.065247 -1278.526978 66.301003
895.763245 -1253.216919 33.313534
887.968201 -1282.586914 65.208504
893.953247 -1287.927002 50.446045
885.428223 -1286.816895 73.736008
898.360229 -1250.456909 25.141003
882.125244 -1254.406982 72.486099
889.222229 -1200.646973 34.868584
883.158203 -1259.716919 71.188507
889.883240 -1233.756958 43.476070
883.745239 -1208.146973 53.101074
886.235229 -1210.256958 46.571045
887.477234 -1384.366943 70.121002
892.235229 -1375.196899 59.961105
896.700256 -1329.966919 46.263542
895.920227 -1334.996948 48.328552
898.115234 -1376.126953 48.791073
891.462219 -1353.826904 59.016003
884.628235 -1305.057007 75.601105
879.300232 -1333.596924 87.276108
877.693237 -1357.646973 89.761002
890.485229 -1332.276978 58.826004
875.218201 -1360.446899 95.891006
893.298218 -1297.226929 54.006004
894.775208 -1496.756958 47.658504
897.585205 -1488.446899 42.736019
888.118225 -1468.906982 64.643501
886.985229 -1470.616943 66.811005
898.075256 -1489.186890 41.631042
889.100220 -1468.186890 62.673603
876.443237 -1434.956909 90.193504
872.960205 -1425.766968 97.598602
883.903259 -1440.726929 75.401108
883.775208 -1421.006958 77.176003
896.375244 -1404.186890 54.258503
882.120239 -1465.166992 76.941002
883.878235 -1436.626953 75.771004
892.515259 -1604.946899 21.088604
892.407227 -1586.766968 27.653603
892.773254 -1583.557007 27.771004
896.555237 -1589.206909 15.533503
896.563232 -1564.626953 24.003504
888.238220 -1585.057007 39.588554
883.730225 -1533.396973 62.916004
892.185242 -1552.966919 39.678585
887.785217 -1531.896973 54.566002
881.008240 -1518.796997 72.531105
892.113220 -1514.446899 49.726074
881.820251 -1513.606934 72.113503
900.967224 -1614.546997 -13.323898
900.420227 -1666.326904 -54.888996
896.715210 -1678.976929 -51.753994
886.615234 -1686.896973 -20.833897
894.905212 -1669.866943 -37.348896
889.503235 -1652.976929 -4.701397
887.860229 -1616.076904 27.833504
887.290222 -1645.096924 8.126003
887.942200 -1643.956909 6.911003
882.985229 -1679.177002 -3.546497
889.345215 -1642.136963 3.833504
878.785217 1004.929016 -226.176392
882.188232 1003.373962 -228.534393
871.315247 1007.781982 -221.844391
850.403259 1008.174011 -221.249390
861.365234 996.458984 -239.034393
858.197205 1001.114014 -231.966400
867.590210 993.989014 -242.781403
888.188232 1055.102051 -150.009399
898.258240 1000.096985 -233.511383
900.463257 1005.794006 -224.859406
872.875244 1074.646973 -201.401398
895.408203 1047.291992 -243.516388
855.273254 1079.213989 -194.374390
860.350220 1054.634033 -232.209381
863.178223 1071.661987 -205.996399
869.573242 1047.156982 -243.721405
891.195251 1081.046997 -191.551392
896.670227 1101.612061 -159.889389
894.205200 1085.039062 -185.404388
869.373230 1102.286987 -158.854385
885.970215 1107.624023 -150.634399
892.003235 1070.734009 -207.426392
900.895203 1064.664062 -216.771393
904.743225 1098.511963 -142.769394
901.925232 1042.237061 -226.651398
902.990234 1056.187012 -195.246399
903.972229 1097.592041 -165.626389
901.495239 1044.627075 -239.094391
901.520203 1004.456970 -239.424408
902.495239 1030.072021 -210.254395
904.488220 1086.379028 -150.481400
904.520203 1061.473999 -149.511398
903.520203 1067.367065 -179.524399
902.537231 1024.249023 -209.016388
845.270203 991.752014 -246.041382
860.313232 983.184021 -257.984406
894.433228 974.791992 -269.681396
860.580200 975.261963 -269.029388
873.033203 -1011.547058 -384.196381
863.688232 -999.677063 -384.196381
839.527222 -1000.677063 -384.196381
851.033203 -976.017029 -384.196381
880.275208 -984.497009 -384.196381
885.230225 -971.696960 -384.196381
871.345215 -941.777039 -384.274384
859.600220 -948.867004 -384.254395
885.170227 -965.297058 -384.206390
882.118225 -965.946960 -384.206390
889.558228 -778.598022 -384.741394
831.703247 -887.446960 -384.429382
856.423218 -801.395996 -384.674408
859.247253 -829.416016 -384.594391
831.673218 -844.697021 -384.551392
856.820251 -823.501038 -384.611389
862.853210 -814.026001 -384.639404
858.498230 -805.501038 -384.664398
862.700256 -777.728027 -384.744385
848.368225 -804.322998 -384.666382
869.003235 -897.777039 -384.399384
873.498230 -913.867004 -384.354401
870.928223 -910.387024 -384.364380
863.967224 -866.716980 -384.489380
859.780212 -920.456970 -384.334381
881.395203 -849.737000 -384.536407
856.858215 -897.917053 -384.399384
853.982239 -905.586975 -384.376404
881.388245 -923.167053 -384.326385
888.375244 -249.357986 -386.251404
887.385254 -591.716003 -385.274384
887.428223 148.440201 -387.386383
887.330200 -24.414001 -386.894379
889.750244 -596.601013 -385.259399
889.803223 -650.496033 -385.106384
889.000244 -600.466003 -385.249390
855.250244 -51.774994 -386.816406
852.435242 -113.582993 -386.639404
861.985229 21.327011 -387.024384
836.485229 71.941010 -387.169403
830.652222 -167.106003 -386.486389
868.935242 -21.128998 -386.904388
837.458252 -527.616028 -385.456390
848.260254 121.271507 -387.309387
869.865234 48.937004 -387.104401
859.075256 265.309021 -387.721405
835.603210 -26.487000 -386.889404
849.075256 60.386009 -387.136383
834.690247 206.081299 -387.551392
837.815247 73.679504 -387.174408
856.405212 -96.318008 -386.689392
844.793213 91.208008 -387.224396
835.727234 -554.140991 -385.381378
842.747253 -211.240982 -386.361389
831.515259 -388.010986 -385.856384
842.675232 -216.791000 -386.344391
844.208252 -102.112991 -386.671387
858.485229 -104.736008 -386.664398
859.887207 170.062469 -387.449402
838.943237 -383.510986 -385.869385
832.985229 -312.955994 -386.069397
831.503235 190.704010 -387.509399
842.910217 -163.095993 -386.499390
832.688232 -512.148010 -385.501404
838.030212 -291.742981 -386.131378
850.635254 -241.296005 -386.274384
868.960205 4.396011 -386.976379
853.905212 -327.791016 -386.026398
842.143250 222.214813 -387.599396
834.135254 -231.202988 -386.304382
837.063232 44.733009 -387.091400
871.798218 11.347000 -386.996399
854.038208 -274.781006 -386.179382
839.350220 -500.358032 -385.534393
838.473206 -610.372986 -385.221405
834.352234 -299.473022 -386.109406
866.298218 29.100006 -387.046387
866.468201 190.105911 -387.506378
845.277222 -164.925980 -386.491394
845.780212 67.531006 -387.156403
831.795227 -292.300964 -386.129395
838.870239 -223.667984 -386.324402
861.115234 -204.137985 -386.381378
864.525208 241.915207 -387.654388
843.035217 -44.063995 -386.839386
852.915222 192.855103 -387.514404
878.223206 133.143311 -387.344391
832.845215 108.899704 -387.274384
848.888245 -32.627991 -386.871399
836.925232 -390.651001 -385.849396
869.443237 182.089905 -387.484406
860.025208 -201.313004 -386.389404
858.417236 232.077805 -387.626404
839.790222 -519.406006 -385.481384
857.357239 155.093170 -387.406403
843.510254 263.983002 -387.716400
868.510254 -660.751038 -385.076385
884.740234 -125.225998 -386.606384
879.940247 -606.085999 -385.234406
869.962219 -222.593002 -386.329407
874.055237 -213.797989 -386.354401
833.608215 -711.265991 -384.931396
871.123230 -192.375992 -386.414398
863.655212 -230.296005 -386.306396
860.288208 -529.877991 -385.451385
879.915222 -564.026001 -385.354401
870.750244 -578.070984 -385.314392
834.570251 -761.591003 -384.789398
875.813232 -95.492996 -386.691406
860.635254 -462.996033 -385.641388
873.865234 -715.153015 -384.921387
867.378235 -586.325989 -385.289398
856.165222 -544.038025 -385.409393
872.537231 -301.062988 -386.104401
849.270203 -690.070984 -384.994385
875.100220 -416.166016 -385.776398
858.865234 -442.348022 -385.701385
860.875244 -407.363037 -385.801392
855.355225 -503.015991 -385.526398
850.540222 -615.682983 -385.206390
872.678223 -4.837997 -386.949402
872.310242 -674.216003 -385.039398
870.740234 -658.543030 -385.084381
853.430237 -760.678040 -384.791382
878.703247 -292.992981 -386.126404
878.545227 -7.513992 -386.941406
874.765259 -495.866028 -385.546387
868.025208 -298.583008 -386.111389
873.743225 -189.090988 -386.424408
852.095215 -668.565979 -385.054382
835.923218 -722.322998 -384.901398
866.538208 -439.432983 -385.709381
879.280212 -137.392990 -386.571381
868.253235 -629.156006 -385.166382
854.928223 -424.203003 -385.751404
883.235229 -261.838013 -386.216400
883.450256 -517.978027 -385.484406
884.900208 -738.442993 -384.854401
851.555237 -671.145996 -385.046387
866.568237 -458.273010 -385.654388
866.888245 -600.265991 -385.249390
859.980225 -278.380981 -386.169403
868.282227 -513.561035 -385.496399
874.730225 -456.588013 -385.659393
859.433228 -575.723022 -385.319397
874.715210 -493.145996 -385.556396
868.100220 -591.626038 -385.274384
882.570251 -232.416000 -386.299408
857.993225 -458.091003 -385.656403
875.610229 0.184006 -386.964386
857.280212 -673.942993 -385.039398
847.685242 -616.648010 -385.204407
849.320251 -592.395996 -385.271393
869.660217 -667.931030 -385.056396
861.727234 -645.101013 -385.121399
880.785217 -112.207993 -386.644379
887.953247 705.471985 -388.979401
888.135254 443.414001 -388.229401
888.038208 365.687012 -388.009399
850.713257 752.867004 -389.114380
830.798218 502.713989 -388.399384
847.340210 599.502014 -388.676392
830.158203 332.993011 -387.914398
843.750244 574.254028 -388.604401
851.222229 719.503967 -389.019379
862.127258 611.212036 -388.709381
839.715210 640.739014 -388.794403
864.803223 726.693970 -389.039398
856.400208 559.588989 -388.561401
876.203247 700.323975 -388.964386
861.810242 643.694031 -388.801392
836.783203 377.588013 -388.041382
841.958252 442.814026 -388.229401
873.505249 653.897034 -388.831390
849.555237 681.088989 -388.909393
863.830200 619.582031 -388.734406
843.415222 384.541016 -388.061401
857.190247 515.671997 -388.436401
851.480225 488.958984 -388.359406
837.053223 669.768982 -388.876404
850.200256 646.299011 -388.809387
836.005249 584.747009 -388.634399
842.148254 672.239014 -388.884399
834.967224 594.721985 -388.661407
837.068237 474.082031 -388.316406
844.655212 502.726990 -388.399384
832.823242 554.039001 -388.546387
870.430237 481.848999 -388.339386
855.033203 291.789001 -387.796387
848.558228 285.205994 -387.779388
871.193237 552.262024 -388.541382
862.722229 270.403015 -387.736389
871.333252 353.760986 -387.974396
848.223206 340.644012 -387.936401
873.660217 398.202026 -388.101379
863.710205 282.697021 -387.771393
876.072205 293.302002 -387.801392
851.667236 298.950989 -387.816406
868.898254 574.828979 -388.604401
860.928223 332.401001 -387.914398
877.978210 602.874023 -388.684387
864.340210 530.557007 -388.479401
861.085205 477.244019 -388.326385
862.675232 360.731018 -387.994385
880.193237 315.846985 -387.866394
873.912231 535.812012 -388.494385
878.133240 561.577026 -388.566406
863.903259 285.358002 -387.779388
885.310242 567.729004 -388.584381
862.560242 333.635010 -387.916382
861.030212 485.082031 -388.349396
881.258240 553.953979 -388.546387
875.658203 377.007019 -388.039398
857.440247 479.754028 -388.334381
840.952209 330.704010 -387.909393
887.895203 784.198975 -389.204407
867.198242 782.752014 -389.199402
831.027222 764.323975 -389.146393
853.860229 760.033997 -389.134399
866.295227 776.013977 -389.179382
887.435242 815.671997 -381.014404
834.063232 817.052002 -380.599396
835.912231 833.388977 -375.681396
837.602234 834.851990 -375.241394
847.585205 811.248962 -382.344391
848.118225 790.408997 -388.616394
876.985229 836.278992 -374.811401
849.585205 794.646973 -387.341400
892.750244 895.557007 -350.629395
858.407227 874.231995 -359.919403
832.433228 868.059021 -362.606384
858.197205 877.088989 -358.674408
883.370239 876.873962 -358.766388
873.995239 869.201965 -362.111389
844.328247 854.313965 -368.594391
894.383240 924.528992 -329.144379
848.678223 906.057007 -342.871399
838.975220 908.036987 -341.401398
868.298218 898.576965 -348.431396
859.993225 895.783997 -350.506378
856.040222 954.609009 -294.706390
845.063232 942.757019 -309.374390
870.325256 970.451965 -275.109406
858.063232 956.836975 -291.951385
891.402222 944.731995 -306.929382
881.818237 946.011963 -305.344391
882.503235 934.453979 -319.646393
884.905212 932.723999 -321.786407
886.733215 -924.047058 -393.064392
885.455200 -922.226990 -396.479401
889.132202 -923.147034 -386.661407
884.642212 -863.267029 -398.816406
888.298218 -882.057068 -389.006378
887.275208 -828.301025 -391.891388
881.782227 -855.697021 -406.364380
887.130249 -808.856018 -392.309387
884.630249 -788.251038 -398.881378
882.540222 -777.928040 -404.374390
880.938232 -889.007019 -408.591400
884.345215 -331.606018 -399.631378
881.055237 -312.075989 -408.279388
882.398254 -199.725998 -404.749390
880.688232 -589.621033 -409.246399
882.045227 -39.897995 -405.676392
880.245239 -768.835999 -410.406403
885.340210 -569.978027 -397.016388
879.040222 -305.263000 -413.579407
880.855225 -393.320984 -408.804382
887.840210 -750.841003 -390.441406
878.950256 160.278580 -413.811401
880.985229 -580.091003 -408.464386
883.227234 -579.341003 -402.566406
883.330200 -605.947998 -402.299408
880.600220 -506.877991 -409.474396
879.503235 -160.212997 -412.361389
881.813232 -316.075989 -406.289398
884.715210 -513.466003 -398.656403
883.798218 -494.056030 -401.074402
884.953247 -576.437988 -398.031403
883.855225 -501.083008 -400.921387
881.418213 -392.835999 -407.324402
879.248230 -581.213013 -413.034393
881.480225 -303.682983 -407.161407
881.650208 -690.958008 -406.716400
881.898254 -485.455994 -406.066406
880.813232 -64.341995 -408.919403
882.290222 -249.745987 -405.031403
879.005249 -259.737976 -413.669403
884.917236 -432.911011 -398.124390
883.183228 -245.046005 -402.686401
882.058228 -563.565979 -405.646393
883.542236 -313.976013 -401.741394
886.645203 -11.740997 -394.879395
886.042236 263.588013 -397.089386
889.253235 209.925507 -389.349396
886.005249 -47.227997 -396.291382
888.580200 133.953201 -390.719391
889.107239 180.929810 -389.609406
888.910217 116.026306 -389.891388
880.015259 162.130081 -411.046387
885.768250 -19.567993 -396.929382
889.898254 76.463005 -387.441406
882.863220 -112.642990 -403.529388
886.600220 202.998505 -395.599396
885.463257 -316.502991 -396.806396
887.310242 -191.052994 -392.791382
888.230225 225.422302 -391.806396
882.698242 -12.421997 -404.206390
889.523254 260.906006 -388.856384
885.212219 8.343002 -398.319397
885.475220 -294.583008 -396.836395
887.555237 -329.601013 -391.816406
888.190247 -442.638000 -389.996399
888.810242 132.416504 -390.171387
885.175232 -87.085999 -398.139404
881.075256 169.497559 -408.561401
889.540222 -472.426025 -386.719391
886.680237 153.327988 -395.266388
886.965210 162.987701 -394.621399
885.743225 233.266296 -397.709381
889.665222 -220.055984 -387.144379
886.847229 259.614319 -395.171387
862.968201 -238.565994 -443.627380
865.013245 -336.507996 -439.829407
863.600220 -73.075989 -442.451385
863.808228 -123.055984 -442.068390
869.968201 234.645706 -430.634399
872.708252 212.564514 -425.546387
871.357239 67.923004 -428.054382
857.303223 -516.871033 -454.141388
861.065247 -483.596008 -447.155396
863.257202 -133.310989 -443.088379
862.452209 -107.190994 -444.582397
859.590210 -469.632996 -449.893402
863.175232 -428.638000 -443.238403
862.655212 -0.837997 -444.205383
867.243225 201.215698 -435.689392
864.963257 134.427200 -439.921387
869.048218 3.468002 -432.339386
861.873230 -441.613037 -445.655396
870.528259 6.238007 -429.594391
873.420227 203.173706 -424.226379
864.305237 -1.914993 -441.144379
861.328247 249.101807 -446.671387
864.183228 224.899506 -441.369385
858.970215 -436.673035 -451.045380
868.935242 -60.351990 -432.546387
862.448242 221.981812 -444.589386
873.198242 164.410706 -424.634399
865.742249 148.763412 -438.476379
875.503235 190.604202 -420.356384
863.263245 -243.227982 -443.078400
858.590210 -633.431030 -451.750397
859.492249 -576.596008 -450.077393
868.083252 -238.128006 -434.131378
872.055237 141.915207 -426.756378
870.985229 122.945305 -428.744385
864.653259 -335.820984 -440.496399
858.853210 69.817207 -451.261383
860.212219 -442.942993 -448.739380
868.905212 0.750000 -432.606384
876.273254 181.659698 -418.929382
863.230225 -81.998001 -443.137390
864.915222 -198.495987 -440.009399
860.313232 169.105469 -448.554382
858.458252 -110.797989 -451.996399
860.508240 -43.306000 -448.192383
863.417236 -258.375977 -442.789398
858.450256 -393.588013 -452.011383
857.435242 -311.343018 -453.893402
865.902222 -434.491028 -438.174408
875.495239 -317.792969 -420.374390
872.705200 -759.835999 -425.549408
876.360229 -316.536011 -418.769379
870.295227 -217.132980 -430.024384
858.983215 -738.502991 -451.021393
870.357239 -357.067993 -429.909393
874.048218 -749.242981 -423.059387
860.480225 -710.923035 -448.243378
876.615234 62.613007 -418.296387
877.780212 -628.686035 -416.131378
867.275208 -653.061035 -435.631378
858.265259 -761.416016 -452.355408
877.860229 -247.690994 -415.981384
877.515259 171.572739 -416.624390
878.540222 -522.298035 -414.719391
875.730225 -706.043030 -419.936401
873.850220 -276.727966 -423.426392
868.142212 -728.186035 -434.021393
864.735229 -535.921021 -440.341400
876.945251 -137.082993 -417.681396
874.935242 -88.352997 -421.411407
876.715210 -136.123001 -418.106384
871.508240 -403.497986 -427.771393
864.863220 -434.736023 -440.109406
871.380249 -548.872986 -428.011383
877.505249 -525.713013 -416.644379
868.785217 -504.983032 -432.826385
868.380249 -768.536011 -433.581390
877.332214 -608.288025 -416.964386
873.208252 -209.397995 -424.619385
863.295227 -607.645996 -443.018402
867.075256 -637.703003 -436.001404
868.953247 -595.630981 -432.516388
865.140259 -538.010986 -439.594391
861.195251 -717.681030 -446.916382
873.523254 -765.617981 -424.034393
869.167236 -263.268005 -432.119385
875.695251 -78.313995 -420.001404
873.840210 0.018005 -423.444397
877.388245 -740.950989 -416.859406
864.425232 -425.148010 -440.921387
862.070251 -757.116028 -445.288391
864.995239 -471.853027 -439.864380
870.977234 -138.275986 -428.759399
877.647217 -529.945984 -416.379395
870.035217 -633.798035 -430.506378
868.772217 -921.387024 -432.851379
876.203247 -808.742981 -419.061401
867.428223 -917.027039 -435.344391
867.917236 -877.106995 -434.439392
864.065247 -884.316956 -441.587402
870.913208 -862.367004 -428.876404
877.148254 -931.096985 -417.306396
871.423218 -828.783020 -427.931396
860.758240 -868.897034 -447.728394
857.370239 -827.348022 -454.015381
867.397217 -841.237000 -435.401398
858.155212 -797.676025 -452.556396
863.042236 -840.587036 -443.485382
862.135254 -870.086975 -445.168396
838.413208 -450.533020 -472.647369
841.015259 -209.602982 -470.120392
838.795227 -408.561035 -472.276398
843.107239 -160.737991 -468.086395
837.313232 -107.296005 -473.716400
844.798218 83.310509 -466.445404
836.542236 -102.615982 -474.465363
848.787231 -13.896988 -462.571381
850.780212 131.205505 -460.635406
840.203247 -342.138000 -470.910370
837.313232 -124.280991 -473.718414
838.773254 -282.520996 -472.299408
844.780212 -228.202988 -466.463379
847.530212 204.574799 -463.792389
836.855225 -422.416016 -474.162384
853.693237 240.364502 -457.804382
843.945251 -339.096008 -467.273407
840.418213 -33.820999 -470.700409
846.792236 192.062103 -464.506378
841.743225 -310.857971 -469.414398
854.483215 156.075531 -457.036407
846.280212 169.014191 -465.005402
840.478210 -303.643005 -470.641388
852.895203 104.844208 -458.580383
845.690247 -278.830994 -465.578400
849.542236 166.272141 -461.836395
840.265259 -255.565994 -470.849396
841.568237 -284.622986 -469.584381
851.915222 94.663010 -459.532379
838.925232 -555.812988 -472.150421
855.650208 -419.686035 -455.902405
853.535217 -738.020996 -457.956390
845.137207 -454.426025 -466.115387
855.842224 -284.546021 -455.716400
846.228210 -578.692993 -465.055389
844.768250 -627.186035 -466.476379
853.950256 -194.337997 -457.553406
851.600220 -308.757996 -459.838379
851.433228 -533.171021 -459.999390
853.157227 -73.307999 -458.325378
848.912231 -291.752991 -462.447388
846.995239 -468.293030 -464.310394
856.542236 -287.036011 -455.036407
854.270203 -467.583008 -457.243378
846.808228 -396.635986 -464.493378
855.597229 -346.388000 -455.953400
849.415222 -343.583008 -461.960388
854.870239 123.804306 -456.662384
856.078247 -518.223022 -455.488403
839.667236 -760.721008 -471.428375
843.393250 -503.252991 -467.810394
847.350220 -767.742981 -463.966400
850.022217 -531.890991 -461.370392
849.673218 -587.942993 -461.710388
853.013245 -697.741028 -458.465393
848.355225 -642.513000 -462.989380
850.695251 -575.463013 -460.717407
855.690247 57.030006 -455.864380
855.375244 -732.273010 -456.169403
855.390259 -664.252991 -456.154388
854.028259 -853.536987 -457.479401
845.077209 -924.956970 -466.173401
844.295227 -907.987000 -466.933380
855.150208 -931.566956 -456.389404
847.088257 -924.007019 -464.220398
839.088257 -896.867004 -471.993378
845.765259 -862.987000 -465.505402
841.183228 -782.437988 -469.956390
842.813232 -816.773010 -468.374390
889.330200 -952.887024 -386.059387
888.662231 -934.696960 -387.886383
872.748230 -967.777039 -425.471405
869.733215 -950.247009 -431.069397
857.693237 -953.196960 -453.418396
847.695251 -963.186951 -463.632385
844.953247 -947.897034 -466.294403
880.615234 340.079010 -409.926392
884.055237 318.635010 -401.791382
883.910217 287.998016 -402.139404
884.967224 387.275024 -399.639404
882.293213 381.205994 -405.959381
882.785217 507.824036 -404.799408
883.798218 306.312012 -402.404388
879.743225 482.072021 -411.986389
882.178223 307.246002 -406.234406
879.803223 465.677002 -411.849396
885.380249 376.980011 -398.661407
880.002258 536.897034 -411.374390
886.085205 280.053009 -396.999390
880.072205 460.013977 -411.209381
885.950256 642.999023 -397.884399
885.978210 671.796997 -397.904388
887.790222 631.087036 -393.729401
888.000244 666.098999 -393.359406
887.718201 674.723999 -394.016388
886.653259 551.651978 -396.051392
886.318237 583.171997 -396.891388
881.825256 699.258972 -407.279388
886.580200 528.949036 -396.146393
887.038208 406.625000 -394.776398
888.948242 753.641968 -391.489380
881.788208 711.731995 -407.401398
887.835205 420.382019 -393.029388
867.143250 533.077026 -435.876404
862.193237 626.708984 -445.064392
871.670227 608.989014 -427.471405
865.795227 560.629028 -438.376404
858.098206 622.713989 -452.666382
863.580200 669.762024 -442.487396
859.673218 546.286987 -449.741394
857.575256 552.286987 -453.636383
866.693237 580.072021 -436.711395
864.758240 485.074036 -440.304382
864.613220 594.114014 -440.571381
857.643250 580.082031 -453.508392
858.462219 567.802002 -451.987396
875.330200 754.598999 -420.679382
864.310242 546.992004 -441.134399
862.100220 608.549011 -445.235382
864.850220 655.887024 -440.134399
858.040222 380.317993 -452.771393
858.185242 452.703979 -452.503387
862.773254 685.726990 -443.987396
868.505249 618.223999 -433.344391
860.818237 527.354004 -447.613403
869.560242 597.901978 -431.391388
877.782227 381.892029 -416.129395
867.287231 267.924011 -435.604401
865.182251 419.153992 -439.514404
877.315247 348.889008 -416.994385
862.320251 330.760010 -444.827393
875.032227 544.197021 -421.231384
866.525208 436.962036 -437.024384
878.750244 486.296997 -414.329407
868.607239 277.231018 -433.156403
864.640259 294.658997 -440.519379
866.830200 362.827026 -436.456390
874.717224 623.838989 -421.816406
864.298218 323.359985 -441.156403
862.433228 308.616028 -444.617401
866.353210 272.744995 -437.344391
871.065247 554.252014 -428.596405
869.670227 308.299011 -431.186401
869.292236 388.085999 -431.884399
871.305237 543.096985 -428.149384
877.852234 531.226990 -415.994385
866.913208 347.843994 -436.301392
878.188232 634.458984 -415.374390
842.628235 526.674011 -468.553406
841.480225 612.447021 -469.667389
851.193237 701.658997 -460.233398
842.187256 585.702026 -468.980377
851.453247 703.533997 -459.980408
846.805237 756.687012 -464.494385
837.382202 451.083984 -473.649384
846.712219 714.723999 -464.586395
846.957214 600.189026 -464.348389
839.050232 591.757019 -472.028412
846.788208 747.994019 -464.513397
840.815247 424.859009 -470.314423
840.563232 486.124023 -470.559418
836.952209 614.846985 -474.067413
848.970215 419.502014 -462.391388
856.255249 711.369019 -455.315399
852.900208 585.559021 -458.575378
855.810242 441.778992 -455.748383
856.902222 408.679016 -454.685394
850.643250 437.166992 -460.767395
857.083252 319.911987 -454.512390
847.620239 495.783997 -463.703400
856.597229 514.419006 -454.982391
854.847229 376.455017 -456.683380
839.558228 323.739990 -471.536407
852.527222 610.944031 -458.935394
853.885254 665.526978 -457.617401
855.390259 270.763000 -456.156403
882.713257 769.086975 -405.464386
887.640259 772.997009 -394.456390
861.180237 784.687012 -446.944397
865.233215 764.398987 -439.424408
869.730225 761.669006 -431.074402
855.008240 764.331970 -456.527405
896.250244 968.237000 -332.086395
896.203247 951.372009 -321.909393
894.663208 936.247009 -342.911407
894.940247 926.846985 -331.129395
898.405212 973.049011 -290.086395
893.330200 909.549011 -352.594391
892.928223 901.296997 -357.386383
892.840210 905.023987 -363.919403
894.315247 961.044006 -366.961395
892.668213 934.119019 -372.911407
890.917236 897.958984 -375.326385
890.240234 879.958984 -382.059387
890.145203 881.502014 -383.874390
890.505249 838.059021 -378.094391
898.688232 977.518982 -287.339386
897.190247 976.828979 -315.886383
895.685242 974.557007 -343.616394
894.423218 968.041992 -367.314392
890.938232 977.141968 -383.904388
849.878235 967.093994 -464.474396
860.027222 971.557007 -450.767395
869.050232 972.291992 -432.086395
846.850220 1023.068970 -444.659393
845.505249 1023.068970 -451.694397
841.923218 1023.068970 -417.421387
801.010254 1023.068970 -464.860382
810.023254 1023.068970 -463.274384
808.970215 1023.068970 -453.689392
848.785217 1023.068970 -476.211395
847.128235 1018.312012 -481.686371
851.403259 1013.487000 -472.645416
853.863220 1005.093994 -467.471405
862.720215 993.706970 -448.866394
868.762207 997.338989 -435.704407
866.063232 1011.987000 -441.798401
870.573242 1108.818970 -140.016388
878.320251 1108.804077 -140.016388
867.798218 1084.891968 -140.016388
886.402222 1087.107056 -140.016388
893.828247 1070.609009 -140.016388
904.133240 1079.852051 -140.016388
851.763245 1027.312012 -363.026398
872.088257 1026.136963 -370.409393
854.092224 1031.891968 -334.259399
848.213257 1037.078979 -301.666382
869.755249 1038.257080 -294.266388
847.467224 1028.702026 -354.294403
859.075256 1028.906982 -353.006378
885.945251 1030.559082 -342.626404
894.370239 1031.092041 -339.279388
894.542236 991.421997 -364.936401
896.720215 1009.903992 -324.236389
898.303223 1012.187012 -294.406403
897.455200 1007.174011 -310.524384
895.495239 1000.098999 -347.019379
895.725220 995.898987 -342.786407
870.765259 1040.982056 -277.156403
892.113220 1038.761963 -291.104401
898.900208 1027.432007 -281.986389
898.730225 1012.768982 -285.516388
875.185242 1042.337036 -268.206390
895.398254 1044.112061 -256.001404
901.023254 1009.544006 -249.354401
900.248230 1022.396973 -260.546387
868.628235 1025.597046 -378.709381
834.900208 1023.658997 -408.014404
860.948242 1024.261963 -399.511383
884.865234 998.093994 -399.501404
885.323242 1006.794006 -398.276398
894.163208 1008.403992 -371.291382
