ply
format ascii 1.0
element vertex 1381
property float x
property float y
property float z
end_header
711.842834 1468.617920 -535.850342
690.179810 1462.757812 -536.910339
641.359863 1487.277832 -532.476318
628.082825 1465.637939 -536.389343
717.994812 1494.187744 -531.225342
658.117859 1431.757812 -542.515320
642.187805 1412.177734 -546.055359
637.294861 1448.327881 -539.518372
681.059814 1441.217773 -540.804321
714.869812 1401.827881 -547.927368
695.344849 1416.897705 -545.202332
686.687805 1403.137939 -547.690369
772.834839 1474.497803 -534.786316
757.779846 1442.997803 -540.482361
781.217834 1388.447754 -550.347351
788.384827 1403.197754 -547.679321
706.112854 1423.437744 -544.018372
717.607849 1427.647705 -543.258362
689.422852 1429.807861 -542.868347
718.574829 1414.317871 -545.668335
779.974854 1418.237793 -544.960327
739.442810 1402.507812 -547.805359
690.929810 1403.927734 -547.548340
802.169861 1391.887939 -549.724365
757.957825 1429.877930 -542.855347
812.887817 1416.757812 -545.227356
663.139832 1406.507812 -547.081360
788.974854 1389.707764 -550.118347
781.739807 1391.667725 -549.763367
765.782837 1471.027832 -535.413330
762.859863 1433.207764 -542.253357
641.414856 1392.357910 -549.639343
768.829834 1394.347900 -549.280334
745.749817 1441.157715 -540.815369
708.877808 1430.597900 -542.725342
801.422852 1392.107910 -549.686340
783.362854 1415.527832 -545.451355
716.659851 1422.757812 -544.143372
766.214844 1392.417725 -549.630371
759.774841 1418.837891 -544.851318
723.647827 1447.957764 -539.586365
664.934814 1396.027832 -548.976318
764.967834 1460.637939 -537.292358
774.142822 1459.797852 -537.445312
781.102844 1462.607910 -536.937317
825.887817 1463.977783 -536.688354
785.202820 1404.447754 -547.454346
735.994812 1447.237793 -539.715332
782.109863 1425.817871 -543.589355
798.059814 1490.007812 -531.981323
790.569824 1435.647705 -541.811340
815.627808 1481.787842 -533.467346
828.894836 1459.847900 -458.040344
831.192810 1413.417725 -470.724365
827.704834 1452.577881 -457.136353
827.627808 1413.167725 -464.117371
607.797852 1442.837891 -459.595337
604.517822 1392.067871 -475.523315
605.999817 1415.847900 -468.174316
729.762817 1463.657715 -453.850342
720.712830 1456.527832 -455.139343
722.132812 1431.647705 -459.638367
687.212830 1448.747803 -456.545349
817.957825 1396.777832 -465.944336
742.999817 1422.237793 -461.340332
750.717834 1451.147705 -456.111328
781.517822 1463.917725 -453.803345
664.792847 1473.437744 -452.081360
761.917847 1431.487793 -459.666321
707.789856 1443.887939 -457.426331
821.749817 1439.967773 -458.133362
824.347839 1416.737793 -462.334351
771.754822 1454.227783 -455.555359
623.152832 1472.087891 -452.326355
695.564819 1461.377930 -454.261353
811.724854 1464.467773 -453.704346
762.812805 1426.597900 -460.551331
826.004822 1473.427734 -452.082336
810.399841 1429.737793 -459.984314
718.724854 1445.737793 -457.090332
759.252808 1472.607910 -452.231323
655.474854 1470.057861 -452.692322
783.424866 1437.157715 -458.641357
797.012817 1458.707764 -454.746338
771.537842 1459.177734 -454.660339
738.459839 1427.007812 -460.478333
691.072815 1450.667725 -456.199341
779.044861 1448.537842 -456.584351
754.794861 1430.437744 -459.857361
696.204834 1458.237793 -454.829346
720.889832 1418.297852 -462.053345
685.397827 1394.557861 -466.345337
612.854858 1439.727783 -458.178345
619.322815 1420.277832 -461.695312
781.217834 1404.527832 -464.542358
628.112854 1405.427734 -464.380371
786.134827 1395.267822 -466.217346
771.952820 1389.417725 -467.274353
698.644836 1432.477783 -459.489319
649.512817 1424.387939 -460.951355
641.014832 1443.647705 -457.469360
640.234863 1416.537842 -462.371338
757.597839 1405.427734 -464.379333
673.852844 1393.757812 -466.490356
759.182861 1403.467773 -464.735352
754.294861 1411.077881 -463.358337
631.087830 1440.307861 -458.073364
626.679810 1465.267822 -453.558350
608.799866 1474.837891 -451.828369
652.419861 1400.977783 -465.184326
655.807861 1397.057861 -465.892334
701.037842 1395.817871 -466.117371
661.217834 1411.477783 -463.287354
715.279846 1398.047852 -465.713318
786.542847 1400.127930 -465.338318
736.487854 1412.367920 -463.125366
693.977844 1410.967773 -463.377319
672.422852 1430.257812 -459.889343
627.952820 1415.397705 -462.576355
640.552856 1451.697754 -456.013367
679.742859 1418.147705 -462.079346
835.187805 1535.567871 -431.477356
833.309814 1492.877930 -454.453369
600.994812 1560.357910 -416.175354
601.734863 1504.727783 -450.068359
600.612854 1546.577881 -435.424377
600.612854 1537.447754 -441.480347
600.612854 1540.117920 -444.063354
600.612854 1566.347900 -432.373352
600.612854 1539.207764 -432.825378
600.612854 1520.437744 -468.692322
600.612854 1530.107910 -469.039368
600.612854 1529.167725 -460.567322
600.612854 1496.447754 -477.831360
600.612854 1484.277832 -472.199341
835.864807 1547.177734 -450.811340
835.864807 1523.637939 -466.917358
835.864807 1544.457764 -448.630371
835.864807 1515.587891 -468.076355
835.864807 1518.077881 -470.704346
835.864807 1497.657715 -469.436340
835.864807 1512.877930 -462.010315
835.864807 1522.547852 -451.839355
835.864807 1528.447754 -440.487366
835.864807 1507.467773 -470.265320
603.902832 1587.027832 -445.871338
601.314819 1549.267822 -460.041321
603.054810 1515.367920 -488.644348
604.147827 1499.447754 -503.158325
602.627808 1534.917725 -474.404358
831.989807 1549.347900 -471.444336
832.849854 1556.977783 -463.390320
832.537842 1537.367920 -477.147339
835.297852 1504.667725 -488.058350
833.217834 1507.077881 -494.141357
835.574829 1510.127930 -483.530334
607.289856 1579.127930 -459.241333
605.734863 1504.207764 -503.983337
606.314819 1511.087891 -500.843323
831.137817 1581.047852 -452.980347
827.489807 1562.527832 -472.217346
828.297852 1504.397705 -507.987366
608.759827 1587.287842 -461.215332
608.759827 1537.907715 -492.833313
608.759827 1573.147705 -471.658325
608.759827 1516.127930 -517.011353
608.759827 1572.297852 -485.896362
608.759827 1573.997803 -479.350342
827.017822 1541.537842 -505.782349
827.017822 1557.577881 -494.670349
827.017822 1560.407715 -483.195312
827.017822 1567.967773 -474.028320
827.017822 1534.017822 -491.873352
827.017822 1507.817871 -511.190369
731.104858 1598.667725 -469.375366
740.907837 1581.497803 -480.414368
801.974854 1601.737793 -467.399353
797.664856 1595.167725 -471.627319
815.142822 1601.917725 -467.279358
626.327820 1580.427734 -481.101318
617.849854 1598.397705 -469.547363
801.054810 1605.187744 -465.176331
732.787842 1595.847900 -471.186340
639.344849 1543.647705 -504.762329
693.757812 1592.157715 -473.557373
712.019836 1587.487793 -476.564331
771.732849 1604.447754 -465.654358
651.844849 1597.587891 -470.065369
655.484863 1528.667725 -514.399353
612.492859 1601.987793 -467.237366
652.712830 1570.137939 -487.727356
647.577820 1588.777832 -475.732361
612.587830 1591.277832 -474.124329
657.452820 1581.377930 -480.496338
701.449829 1572.367920 -486.291321
609.477844 1522.737793 -518.214355
630.657837 1535.747803 -509.845337
689.999817 1572.557861 -486.170349
646.719849 1544.807861 -504.018372
688.652832 1589.937744 -474.989319
739.602844 1588.287842 -476.047363
617.384827 1539.507812 -507.426331
620.227844 1582.117920 -480.018372
632.659851 1581.757812 -480.251343
660.597839 1580.707764 -480.925354
764.827820 1590.537842 -474.602356
743.544861 1584.617920 -478.409363
609.547852 1534.197754 -510.840332
755.077820 1574.007812 -485.233337
666.169861 1534.317871 -510.766357
708.039856 1569.967773 -487.836365
712.587830 1604.027832 -465.927368
730.219849 1604.527832 -465.603333
625.792847 1594.687744 -471.928345
611.299866 1574.707764 -484.783325
652.297852 1557.367920 -495.937317
729.619812 1565.487793 -490.715332
799.637817 1562.437744 -492.678345
717.597839 1543.857910 -504.628357
734.969849 1511.657715 -525.338318
808.604858 1569.447754 -488.167358
778.939819 1558.547852 -495.178345
709.937805 1529.277832 -514.005371
820.019836 1509.697754 -526.600342
727.559814 1529.857910 -513.631348
669.874817 1519.477783 -520.309326
732.467834 1556.317871 -496.612366
760.207825 1527.407715 -515.207336
634.584839 1508.097900 -527.627319
823.922852 1516.247803 -522.386353
735.747864 1514.247803 -523.671326
691.754822 1540.667725 -506.679321
755.279846 1523.847900 -517.502319
776.844849 1515.417725 -522.921326
811.097839 1584.617920 -478.407349
677.694824 1523.417725 -517.775330
721.252808 1551.937744 -499.427368
704.099854 1515.187744 -523.072327
803.707825 1591.077881 -474.252319
750.774841 1569.597900 -488.074341
750.547852 1507.217773 -528.199341
762.052856 1575.667725 -484.165344
812.699829 1529.917725 -513.595337
824.107849 1538.367920 -508.160339
682.457825 1517.097900 -521.843323
798.029846 1568.677734 -488.663330
733.067810 1549.097900 -501.258362
824.687805 1603.187744 -466.461365
790.744812 1583.377930 -479.206360
801.244812 1557.647705 -495.760315
760.572815 1508.907715 -527.109314
674.642822 1526.327881 -515.903320
781.532837 1574.607910 -484.850342
743.622864 1532.567871 -511.889343
707.707825 1530.437744 -513.261353
821.624817 1530.437744 -513.261353
690.344849 1537.767822 -508.547363
727.374817 1508.617920 -527.298340
806.577820 1569.067871 -488.408325
831.522827 1527.037842 -428.277344
828.929810 1495.027832 -443.204346
828.434814 1490.697754 -444.911316
608.104858 1503.957764 -434.861328
605.589844 1482.497803 -454.725342
604.572815 1494.357910 -449.542358
778.357849 1494.537842 -439.344360
699.562805 1520.937744 -422.366333
705.962830 1533.797852 -414.089355
754.472839 1544.757812 -407.043335
822.352844 1482.737793 -446.938354
779.257812 1492.637939 -440.569336
797.602844 1486.127930 -444.755371
803.239807 1499.437744 -436.192383
749.339844 1543.477783 -407.870361
755.239807 1535.937744 -412.717346
760.079834 1536.997803 -412.032349
779.562805 1535.917725 -412.728333
804.117859 1510.577881 -429.028381
723.067810 1533.397705 -414.350342
725.864807 1537.377930 -411.790344
779.614807 1543.127930 -408.092346
779.299866 1499.907715 -435.889343
660.269836 1546.057861 -406.207336
781.164856 1524.407715 -420.134338
773.102844 1513.747803 -426.988342
770.404846 1548.097900 -404.895386
707.972839 1515.647705 -425.771362
740.842834 1515.667725 -425.753357
819.544861 1530.637939 -416.121338
763.167847 1496.997803 -437.765320
739.257812 1543.267822 -408.001343
820.249817 1515.037842 -426.160339
793.369812 1497.967773 -437.138367
805.069824 1537.137939 -411.946350
779.954834 1516.967773 -424.917358
752.297852 1502.807861 -434.027344
667.332825 1524.237793 -420.239380
635.682861 1520.787842 -422.459351
628.414856 1485.387939 -445.231323
712.449829 1501.547852 -434.840332
630.174866 1509.817871 -429.518372
713.559814 1499.157715 -436.373352
749.694824 1490.087891 -442.211365
672.432861 1493.047852 -440.304321
646.129822 1495.787842 -438.543335
623.304810 1505.617920 -432.221375
662.104858 1515.717773 -425.722351
710.197815 1488.267822 -443.379333
727.749817 1478.657715 -449.562317
679.297852 1494.517822 -439.360352
651.937805 1515.057861 -426.143372
643.829834 1476.957764 -450.652344
666.837830 1509.207764 -429.909363
653.807861 1533.417725 -414.339355
685.322815 1494.747803 -439.208313
788.452820 1483.647705 -446.354370
661.344849 1528.807861 -417.304382
745.744812 1502.417725 -434.274353
689.387817 1511.867920 -428.199341
662.809814 1514.107910 -426.759338
707.914856 1477.807861 -450.110352
760.672852 1484.937744 -445.518372
735.424866 1486.137939 -444.748352
712.154846 1480.257812 -448.529358
752.282837 1500.567871 -435.468384
761.724854 1495.517822 -438.711365
622.047852 1540.027832 -410.089355
833.069824 1593.797852 -359.754333
835.444824 1600.717773 -358.133362
834.117859 1578.207764 -385.920349
603.157837 1587.717773 -368.816345
601.807861 1573.517822 -394.341370
603.254822 1559.427734 -409.212341
600.612854 1612.137939 -348.818359
600.612854 1599.687744 -369.881348
600.612854 1622.987793 -343.505371
600.612854 1585.087891 -384.566345
600.612854 1577.867920 -395.759338
600.612854 1608.277832 -391.928345
600.612854 1607.627930 -387.365356
600.612854 1575.847900 -409.522339
600.612854 1586.237793 -415.888367
600.612854 1591.397705 -401.884338
835.864807 1586.937744 -426.294373
835.864807 1639.367920 -350.873352
835.864807 1590.657715 -421.362366
835.864807 1621.367920 -360.854370
835.864807 1616.157715 -386.046387
835.864807 1568.757812 -418.607361
835.864807 1589.587891 -380.259338
835.864807 1594.187744 -393.274353
835.864807 1576.827881 -398.640381
601.722839 1604.567871 -409.182373
601.739807 1615.057861 -394.156372
601.119812 1609.927734 -397.969360
602.354858 1597.467773 -423.065369
603.857849 1602.687744 -424.182373
833.914856 1623.067871 -386.645386
832.022827 1648.657715 -360.004333
832.889832 1638.297852 -370.234375
835.704834 1581.567871 -436.802368
834.864807 1598.127930 -417.461365
605.594849 1616.547852 -411.164368
604.409851 1649.197754 -360.233337
606.917847 1594.347900 -447.493347
608.477844 1596.177734 -449.944336
827.774841 1652.007812 -368.149353
831.784851 1610.657715 -415.876343
831.619812 1604.977783 -424.552368
608.759827 1610.467773 -432.747375
608.759827 1653.557861 -377.427368
608.759827 1651.337891 -373.743347
608.759827 1665.157715 -379.488342
608.759827 1647.137939 -397.563354
608.759827 1611.417725 -445.492371
827.017822 1640.357910 -397.984375
827.017822 1643.957764 -408.694336
827.017822 1648.267822 -387.589355
827.017822 1611.147705 -432.817383
827.017822 1615.607910 -445.282349
827.017822 1609.957764 -450.203369
656.747864 1672.177734 -370.012329
695.469849 1673.217773 -368.516357
720.864807 1653.237793 -397.326355
662.059814 1673.857910 -367.603333
658.114807 1640.797852 -415.256348
700.274841 1643.157715 -411.844360
672.897827 1669.437744 -373.967346
639.499817 1628.927734 -432.362366
727.532837 1662.727783 -383.644348
620.812805 1620.787842 -444.093323
647.109863 1662.847900 -383.468384
735.577820 1660.977783 -386.158386
631.174866 1621.277832 -443.393372
732.869812 1651.787842 -399.410339
735.339844 1664.337891 -381.321350
628.762817 1630.017822 -430.789368
696.742859 1665.067871 -380.268372
662.594849 1641.767822 -413.856384
707.367859 1653.567871 -396.844360
624.099854 1657.547852 -391.099365
619.394836 1649.057861 -403.348328
645.134827 1666.827881 -377.727356
610.349854 1624.637939 -438.547363
629.294861 1620.547852 -444.433350
614.582825 1611.077881 -458.090332
689.019836 1671.227783 -371.386353
721.869812 1671.297852 -371.278381
652.057861 1640.617920 -415.517334
697.657837 1641.207764 -414.656372
684.159851 1637.137939 -420.534363
617.812805 1630.267822 -430.437378
626.454834 1650.957764 -400.607361
627.764832 1654.207764 -395.920349
744.102844 1661.547852 -385.336365
697.432861 1654.807861 -395.058350
719.904846 1651.977783 -399.131348
609.872864 1653.707764 -396.646362
611.667847 1639.767822 -416.737366
734.982849 1651.607910 -399.668335
609.202820 1623.007812 -440.891357
610.409851 1645.657715 -408.238342
667.797852 1658.057861 -390.362366
647.069824 1654.987793 -394.801331
784.297852 1620.517822 -444.480347
738.519836 1641.407715 -414.372375
749.719849 1628.047852 -433.629333
793.249817 1657.537842 -391.114380
797.152832 1632.987793 -426.506348
774.007812 1641.697754 -413.956360
722.984863 1623.537842 -440.138367
777.754822 1636.227783 -421.844360
764.469849 1619.267822 -446.286316
775.079834 1618.687744 -447.128357
668.199829 1607.717773 -462.937317
823.259827 1610.627930 -458.746338
787.669861 1660.167725 -387.328369
747.099854 1634.767822 -423.949341
737.904846 1621.287842 -443.375366
819.897827 1619.097900 -446.530334
732.987854 1642.687744 -412.518372
701.704834 1621.357910 -443.280334
797.332825 1663.187744 -382.977356
809.827820 1656.847900 -392.120361
811.137817 1659.977783 -387.599365
792.632812 1622.107910 -442.189331
704.527832 1635.517822 -422.858337
669.862854 1621.417725 -443.194336
653.517822 1616.597900 -450.132324
715.449829 1616.647705 -450.058350
675.089844 1614.627930 -452.979370
756.204834 1637.407715 -420.140381
739.029846 1632.947754 -426.564331
788.027832 1628.687744 -432.712341
791.779846 1620.617920 -444.341370
803.459839 1666.147705 -378.708374
717.434814 1627.387939 -434.578369
815.369812 1625.307861 -437.573364
751.617859 1635.687744 -422.618347
774.659851 1649.277832 -403.026367
666.597839 1608.837891 -461.329346
676.897827 1622.557861 -441.549316
824.377808 1638.347900 -418.779358
793.644836 1654.287842 -395.807373
769.329834 1614.607910 -453.010315
694.422852 1607.827881 -462.777344
820.114807 1668.247803 -375.687378
831.724854 1573.147705 -384.832336
829.489807 1587.897705 -356.366333
827.347839 1586.807861 -351.041382
829.004822 1557.487793 -398.638367
607.429810 1577.397705 -368.266357
605.429810 1602.547852 -339.116333
605.417847 1588.307861 -359.696350
605.274841 1565.777832 -392.665344
820.674866 1562.637939 -384.814331
721.444824 1593.267822 -340.659363
814.932861 1569.037842 -375.588379
762.982849 1587.097900 -349.556335
823.072815 1578.687744 -361.675354
665.392822 1593.827881 -339.857361
668.054810 1596.637939 -335.815369
783.259827 1599.217773 -332.089355
763.449829 1571.607910 -371.887329
722.874817 1578.767822 -361.565369
724.232849 1573.667725 -368.922363
694.397827 1581.127930 -358.161377
767.744812 1586.267822 -350.753357
725.677856 1580.717773 -358.752380
642.814819 1596.737793 -335.666382
772.742859 1568.767822 -375.983337
752.847839 1581.867920 -357.099365
820.194824 1553.757812 -397.621338
671.409851 1589.697754 -345.815369
619.152832 1598.757812 -332.754333
785.182861 1567.927734 -377.189331
717.809814 1577.277832 -363.715332
713.194824 1593.667725 -340.089355
825.249817 1593.617920 -340.165344
817.254822 1570.567871 -373.382385
752.419861 1570.597900 -373.340332
654.314819 1599.287842 -331.988342
800.809814 1571.077881 -372.649353
765.019836 1582.867920 -355.663330
709.697815 1583.437744 -354.835388
788.957825 1597.737793 -334.231384
757.067810 1572.317871 -370.862366
769.144836 1555.207764 -395.527344
764.607849 1560.357910 -388.108337
698.577820 1565.877930 -380.150330
748.937805 1565.087891 -381.288330
705.612854 1553.087891 -398.591370
610.394836 1556.957764 -393.013367
640.724854 1558.747803 -390.431335
642.537842 1552.657715 -399.200378
774.232849 1557.947754 -391.575378
713.429810 1556.727783 -393.342346
653.209839 1585.897705 -351.287354
781.437805 1556.807861 -393.218384
642.222839 1552.467773 -399.482361
648.914856 1555.847900 -394.609375
659.539856 1576.387939 -364.997375
669.067810 1563.207764 -383.992371
702.369812 1550.607910 -402.160339
649.354858 1553.267822 -398.320374
717.837830 1563.637939 -383.370361
640.919861 1564.827881 -381.662354
704.557861 1570.487793 -373.505371
665.397827 1581.507812 -357.623352
618.519836 1560.987793 -387.200378
715.927856 1557.847900 -391.724365
741.404846 1554.537842 -396.492371
650.302856 1570.277832 -373.810364
636.724854 1585.027832 -352.543335
654.437805 1559.917725 -388.744385
684.662842 1551.667725 -400.635376
618.219849 1585.077881 -352.466370
617.309814 1587.007812 -349.691345
835.437805 1617.807861 -322.330383
832.049866 1626.477783 -250.581345
831.999817 1625.207764 -255.959366
602.424866 1630.857910 -248.084366
600.817810 1625.277832 -289.889343
600.612854 1633.497803 -257.189331
600.612854 1626.607910 -308.629333
600.612854 1641.697754 -284.134338
600.612854 1656.957764 -255.404373
600.612854 1630.787842 -281.224365
600.612854 1646.827881 -305.266357
600.612854 1642.747803 -300.518372
600.612854 1635.687744 -319.157349
600.612854 1626.807861 -318.239380
835.864807 1641.277832 -303.458374
835.864807 1649.747803 -275.016357
835.864807 1640.037842 -249.944351
835.864807 1641.757812 -253.851364
835.864807 1646.777832 -272.941345
835.864807 1625.477783 -332.435364
835.864807 1625.117920 -342.742371
835.864807 1633.047852 -308.698364
835.864807 1632.807861 -311.783386
600.754822 1656.187744 -282.656372
602.117859 1665.357910 -261.534363
601.529846 1649.877930 -323.719360
601.647827 1648.037842 -334.031372
603.222839 1662.617920 -291.249329
604.342834 1656.197754 -338.176331
832.209839 1660.757812 -312.496338
834.619812 1667.257812 -247.521347
835.857849 1659.077881 -267.241333
834.542847 1658.197754 -290.386353
606.327820 1679.157715 -249.969345
608.524841 1666.117920 -329.390381
606.587830 1665.567871 -314.845337
829.859863 1674.047852 -272.246338
829.159851 1670.187744 -295.595337
831.672852 1656.757812 -337.450378
608.759827 1688.687744 -274.546387
608.759827 1674.167725 -319.366333
608.759827 1687.007812 -252.871353
608.759827 1676.967773 -331.069336
608.759827 1678.997803 -338.836365
608.759827 1685.517822 -300.631348
826.942810 1679.377930 -315.274353
819.894836 1692.497803 -272.606384
824.122864 1687.387939 -261.411377
826.869812 1680.727783 -298.643372
827.017822 1677.297852 -318.823364
827.017822 1678.537842 -297.663330
827.017822 1676.877930 -287.479370
661.937805 1684.917725 -321.951355
622.892822 1681.927734 -335.695374
626.634827 1683.587891 -328.068359
653.204834 1684.347900 -324.554382
644.697815 1693.777832 -281.126343
754.422852 1693.647705 -281.721375
718.539856 1690.517822 -296.160339
623.534851 1693.567871 -282.076355
613.317810 1684.547852 -323.624329
680.712830 1700.397705 -250.639359
685.492859 1693.447754 -282.654358
665.592834 1683.637939 -327.818359
648.724854 1700.427734 -250.511368
769.702820 1696.647705 -267.929382
626.627808 1687.257812 -311.170349
659.724854 1689.637939 -300.191345
610.472839 1686.137939 -316.303345
652.917847 1688.587891 -305.049377
674.357849 1696.927734 -266.616333
640.334839 1700.277832 -251.169357
659.889832 1695.907715 -271.314331
658.664856 1691.737793 -290.509338
613.712830 1696.627930 -268.009338
623.729858 1687.717773 -309.037354
723.102844 1695.537842 -272.984375
641.757812 1699.477783 -254.856369
659.677856 1690.607910 -295.743347
668.489807 1683.367920 -329.083374
661.182861 1700.497803 -250.164352
656.232849 1692.517822 -286.894348
682.009827 1688.507812 -305.366333
651.119812 1697.257812 -265.106384
634.557861 1696.077881 -270.514343
681.107849 1690.287842 -297.198364
633.374817 1683.207764 -329.817383
676.664856 1696.457764 -268.779358
632.984863 1682.497803 -333.083374
669.157837 1692.587891 -286.604370
644.309814 1687.707764 -309.082336
617.739807 1696.157715 -270.141357
776.539856 1692.527832 -286.884338
741.567810 1686.187744 -316.078369
719.667847 1688.497803 -305.461365
749.974854 1677.827881 -354.580383
799.322815 1693.057861 -284.456360
819.092834 1687.897705 -308.210388
615.002808 1676.047852 -362.768372
712.142822 1685.837891 -317.710388
812.144836 1692.737793 -285.929382
674.769836 1677.277832 -357.099365
693.634827 1681.477783 -337.796387
784.367859 1677.177734 -357.559387
794.602844 1684.477783 -323.952332
739.639832 1683.427734 -328.810364
802.279846 1679.987793 -344.644348
753.857849 1683.437744 -328.718384
753.077820 1692.767822 -285.789368
814.162842 1681.477783 -337.769348
666.594849 1679.117920 -348.651367
743.192810 1683.637939 -327.850342
774.194824 1681.887939 -335.881348
765.977844 1679.637939 -346.261353
813.132812 1690.757812 -295.016357
757.574829 1692.527832 -286.881348
817.999817 1692.707764 -286.064331
728.294861 1675.997803 -363.008362
728.582825 1682.177734 -334.567383
796.829834 1689.217773 -302.131348
762.529846 1681.707764 -336.694336
734.822815 1689.087891 -302.748352
768.352844 1688.287842 -306.383362
819.249817 1687.387939 -310.534363
700.622864 1685.237793 -320.460388
743.222839 1691.077881 -293.544373
764.747864 1684.537842 -323.699341
776.694824 1691.797852 -290.239380
728.964844 1679.647705 -346.185364
685.294861 1684.957764 -321.770386
677.724854 1681.637939 -337.045349
752.169861 1686.327881 -315.448364
742.137817 1678.097900 -353.327332
765.304810 1689.777832 -299.531372
617.769836 1676.047852 -362.804382
830.242859 1621.337891 -258.451355
828.579834 1611.527832 -289.269348
828.369812 1606.617920 -310.080383
607.499817 1610.987793 -290.249329
606.552856 1610.467773 -301.702332
691.059814 1615.807861 -256.041382
684.059814 1612.167725 -272.794373
785.729858 1612.507812 -271.236328
803.727844 1603.777832 -311.457336
656.794861 1614.477783 -262.166382
713.374817 1613.467773 -266.809387
767.599854 1612.827881 -269.751343
711.467834 1609.577881 -284.706360
698.444824 1614.327881 -262.844360
825.527832 1613.877930 -264.944336
803.012817 1611.337891 -276.624329
813.787842 1612.017822 -273.506348
825.667847 1608.997803 -287.394348
814.909851 1610.927734 -278.494385
697.684814 1615.677734 -256.631348
794.069824 1603.847900 -311.124329
761.647827 1616.867920 -251.171371
721.612854 1615.327881 -258.254333
816.582825 1616.877930 -251.096359
673.172852 1613.437744 -266.939331
782.119812 1606.237793 -300.091370
740.049866 1617.757812 -247.046371
785.979858 1617.837891 -246.701370
688.287842 1611.667725 -275.091370
779.164856 1616.327881 -253.614365
747.069824 1613.877930 -264.906372
799.899841 1612.047852 -273.336365
656.117859 1615.097900 -259.296387
750.599854 1614.227783 -263.296387
765.717834 1611.247803 -277.019348
743.844849 1617.757812 -247.064346
671.019836 1603.687744 -311.852356
610.652832 1604.427734 -308.455383
685.817810 1601.497803 -321.951355
701.722839 1604.677734 -307.298340
612.724854 1607.997803 -292.024353
775.129822 1599.627930 -330.560364
610.692810 1613.807861 -265.224365
637.039856 1600.637939 -325.903381
628.409851 1610.117920 -282.239380
720.387817 1602.677734 -316.484375
626.697815 1607.497803 -294.307373
644.692810 1607.007812 -296.572388
667.519836 1610.917725 -278.544373
738.279846 1606.437744 -299.193359
617.994812 1599.667725 -330.385376
674.077820 1602.957764 -315.229370
691.739807 1604.017822 -310.355347
747.152832 1606.027832 -301.086365
614.662842 1616.467773 -252.979355
751.787842 1602.967773 -315.152344
615.579834 1604.227783 -309.388367
623.634827 1610.857910 -278.821350
660.499817 1606.167725 -300.444336
693.382812 1599.627930 -330.562378
626.709839 1600.457764 -326.725342
616.209839 1606.037842 -301.027344
620.862854 1605.557861 -303.250366
746.914856 1605.307861 -304.392334
698.937805 1608.647705 -288.994385
657.022827 1612.837891 -269.706360
753.567810 1603.917725 -310.794373
834.469849 1616.347900 -158.011353
834.497864 1625.587891 -208.801346
833.972839 1629.577881 -236.659348
602.559814 1617.607910 -172.539352
602.332825 1626.787842 -220.624344
600.954834 1621.337891 -174.149353
600.612854 1639.177734 -191.576370
600.612854 1631.647705 -221.126358
600.612854 1634.837891 -199.336349
600.612854 1633.397705 -179.721359
600.612854 1653.167725 -220.486343
600.612854 1646.157715 -186.529373
600.612854 1642.537842 -211.311356
600.612854 1643.147705 -196.704361
835.864807 1632.107910 -161.069351
835.864807 1642.767822 -180.431351
835.864807 1638.257812 -189.471359
835.864807 1655.237793 -212.944351
835.864807 1650.987793 -181.711349
835.864807 1640.277832 -213.954361
835.864807 1633.547852 -224.584366
835.864807 1648.967773 -239.169357
835.864807 1638.467773 -226.369370
602.992859 1652.087891 -140.146362
603.702820 1655.857910 -147.884354
604.169861 1667.887939 -205.771347
602.702820 1663.147705 -206.649368
834.559814 1651.827881 -160.049362
835.302856 1647.037842 -146.469360
834.082825 1650.527832 -144.634354
833.429810 1667.917725 -229.479355
832.247864 1674.797852 -247.024368
835.499817 1648.787842 -159.509354
607.024841 1661.117920 -136.836365
604.972839 1667.827881 -195.474350
608.009827 1670.517822 -178.556351
830.587830 1663.287842 -164.636353
830.839844 1669.947754 -203.794357
830.312805 1674.977783 -226.641373
608.759827 1681.707764 -227.866348
608.759827 1674.367920 -149.309357
608.759827 1673.907715 -154.001358
608.759827 1691.307861 -222.966354
608.759827 1699.557861 -246.374344
608.759827 1691.747803 -215.614365
820.647827 1684.927734 -195.191360
821.769836 1687.857910 -182.051346
824.344849 1674.867920 -159.654358
820.707825 1689.987793 -229.529373
822.072815 1683.707764 -205.344345
822.864807 1687.687744 -233.511368
684.144836 1685.107910 -159.424362
752.609863 1681.217773 -137.906357
763.362854 1685.647705 -162.446365
641.207825 1681.607910 -140.111359
620.002808 1685.267822 -160.346359
658.544861 1695.507812 -216.969345
615.042847 1680.317871 -132.946365
665.547852 1681.367920 -138.759354
719.397827 1686.027832 -164.556351
625.664856 1681.297852 -138.389359
671.792847 1688.497803 -178.219360
620.752808 1687.457764 -172.461365
674.459839 1687.657715 -173.526352
689.009827 1686.577881 -167.584351
612.002808 1683.717773 -151.759354
689.092834 1693.097900 -203.654373
659.434814 1688.737793 -179.531357
666.074829 1692.887939 -202.486343
653.087830 1685.777832 -163.149353
728.854858 1689.037842 -181.184372
652.899841 1684.917725 -158.411362
632.514832 1682.707764 -146.189362
682.352844 1687.137939 -170.686356
656.367859 1684.307861 -155.011353
640.024841 1682.017822 -142.371353
656.507812 1686.937744 -169.591354
629.392822 1690.387939 -188.654373
630.889832 1684.217773 -154.536362
614.427856 1679.917725 -130.761353
630.794861 1683.257812 -149.204361
700.184814 1680.187744 -132.241364
744.744812 1685.947754 -164.099365
638.874817 1695.157715 -215.014359
676.292847 1679.987793 -131.124359
681.307861 1692.507812 -200.371353
630.479858 1680.607910 -134.571365
674.044861 1688.157715 -176.326355
655.054810 1689.417725 -183.286362
742.552856 1686.647705 -167.961365
669.427856 1692.457764 -200.076370
646.229858 1690.617920 -189.906357
654.359863 1687.247803 -171.294357
659.827820 1681.417725 -139.039352
809.352844 1694.967773 -213.954361
759.824829 1692.387939 -199.701370
750.992859 1698.277832 -232.309372
812.177856 1686.057861 -164.706360
671.237854 1699.157715 -237.131363
717.304810 1693.437744 -205.546371
767.354858 1697.527832 -228.134354
820.487854 1682.797852 -146.689362
676.982849 1699.167725 -237.194351
818.307861 1689.617920 -184.421371
690.937805 1698.787842 -235.071365
737.232849 1691.057861 -192.369370
673.149841 1699.737793 -240.346359
772.827820 1698.657715 -234.369370
692.152832 1694.337891 -210.516373
824.217834 1682.037842 -142.446365
796.654846 1696.817871 -224.244370
717.159851 1694.677734 -212.404373
744.364807 1688.237793 -176.774353
734.799866 1698.167725 -231.689346
777.067810 1695.397705 -216.364365
804.022827 1682.867920 -147.051361
732.784851 1691.177734 -193.006363
666.309814 1698.887939 -235.656357
786.667847 1689.877930 -185.806351
723.312805 1693.657715 -206.734360
755.334839 1694.957764 -213.909348
707.882812 1693.197754 -204.196365
790.884827 1695.657715 -217.784348
819.939819 1682.007812 -142.294357
819.412842 1690.457764 -189.054367
748.157837 1695.707764 -218.061356
762.429810 1698.767822 -235.001358
812.532837 1690.407715 -188.744370
782.097839 1687.187744 -170.949356
815.327820 1685.427734 -161.234360
755.677856 1695.287842 -215.766373
761.094849 1689.117920 -181.619370
793.524841 1696.777832 -223.956345
673.577820 1694.977783 -214.011368
830.967834 1612.627930 -175.601364
829.979858 1607.857910 -159.431351
828.229858 1612.997803 -205.896347
830.972839 1625.017822 -244.089371
608.707825 1613.507812 -220.656357
608.382812 1614.197754 -220.746353
605.602844 1617.047852 -204.904373
606.214844 1618.257812 -218.559372
748.029846 1608.807861 -195.246353
754.307861 1611.037842 -207.599350
704.909851 1608.387939 -192.921371
770.894836 1604.437744 -171.069351
750.757812 1605.407715 -176.446365
750.344849 1610.647705 -205.386368
635.227844 1603.707764 -167.051361
819.839844 1605.967773 -179.549362
659.757812 1604.347900 -170.599365
627.162842 1602.657715 -161.219360
779.517822 1611.287842 -208.926346
761.414856 1605.327881 -176.014359
823.962830 1615.897705 -234.444351
825.667847 1612.467773 -215.491348
638.822815 1602.397705 -159.779358
802.542847 1612.177734 -213.889359
774.829834 1612.377930 -214.966354
811.977844 1610.337891 -203.721359
640.614807 1602.897705 -162.586365
779.672852 1606.997803 -185.206345
648.452820 1603.917725 -168.211365
635.289856 1602.597900 -160.886353
747.712830 1609.007812 -196.361343
767.067810 1613.097900 -218.979355
822.344849 1608.977783 -196.156357
777.639832 1608.367920 -192.826370
763.212830 1610.417725 -204.134354
696.314819 1603.767822 -167.369354
782.277832 1605.927734 -179.336365
717.242859 1603.207764 -164.249359
787.704834 1606.937744 -184.896347
626.504822 1609.427734 -198.666367
801.684814 1617.237793 -241.866348
618.932861 1615.897705 -234.466354
760.279846 1613.777832 -222.741348
715.554810 1612.027832 -213.049362
816.974854 1617.817871 -245.066360
696.534851 1614.897705 -228.939346
703.422852 1613.407715 -220.666367
648.319824 1614.667725 -227.664352
772.099854 1614.117920 -224.591354
740.719849 1612.907715 -217.926346
680.222839 1608.727783 -194.769363
708.122864 1615.877930 -234.329361
639.232849 1612.687744 -216.689346
627.902832 1604.347900 -170.581360
694.387817 1613.237793 -219.751358
624.699829 1604.897705 -173.634354
682.717834 1612.647705 -216.489365
651.022827 1608.137939 -191.551346
664.944824 1615.347900 -231.431351
684.377808 1615.317871 -231.226364
622.287842 1615.597900 -232.781357
615.952820 1608.217773 -191.994370
611.089844 1614.887939 -228.876358
632.367859 1609.117920 -196.969345
611.492859 1602.607910 -160.949356
771.589844 1617.677734 -244.291367
771.507812 1614.147705 -224.796371
761.727844 1616.097900 -235.556351
619.262817 1605.627930 -177.654358
610.209839 1607.377930 -187.354355
835.589844 1613.637939 -147.111359
832.514832 1575.767822 -99.351364
832.064819 1599.557861 -137.969360
603.392822 1566.657715 -83.789352
600.719849 1604.407715 -132.174362
601.862854 1581.747803 -101.349365
600.612854 1606.117920 -116.946365
600.612854 1594.307861 -79.406357
600.612854 1597.237793 -103.794357
600.612854 1582.807861 -83.521362
600.612854 1607.057861 -123.081360
600.612854 1632.047852 -136.796356
600.612854 1609.037842 -94.589355
600.612854 1614.967773 -103.406357
600.612854 1628.127930 -117.564362
600.612854 1611.777832 -127.049362
835.864807 1618.187744 -106.754364
835.864807 1606.027832 -106.491364
835.864807 1630.657715 -127.556351
835.864807 1589.907715 -68.251358
835.864807 1590.267822 -92.306351
835.864807 1609.087891 -138.751358
835.864807 1594.857910 -105.944351
835.864807 1628.567871 -145.101364
835.864807 1585.907715 -96.751358
602.267822 1593.757812 -53.824356
602.242859 1592.727783 -52.376358
603.757812 1621.237793 -87.489365
601.614807 1640.777832 -130.879364
833.632812 1593.067871 -50.081360
833.212830 1615.307861 -82.276352
835.687805 1626.917725 -114.424362
835.449829 1617.977783 -99.156357
604.647827 1622.247803 -84.396362
606.232849 1621.857910 -78.336365
605.079834 1653.557861 -131.594360
608.142822 1630.717773 -85.531357
828.704834 1628.527832 -85.276352
828.044861 1612.827881 -58.801361
829.074829 1649.677734 -119.306351
831.379822 1613.217773 -69.811356
608.759827 1619.347900 -51.699356
608.759827 1650.237793 -113.129364
608.759827 1609.117920 -39.691360
608.759827 1672.257812 -121.724365
608.759827 1666.657715 -131.221359
608.759827 1641.237793 -78.169357
827.017822 1618.487793 -40.289360
827.017822 1630.767822 -67.509354
827.017822 1614.077881 -38.436356
827.017822 1637.107910 -69.691360
827.017822 1653.967773 -112.081360
827.017822 1664.187744 -127.399353
827.017822 1647.417725 -105.081360
755.524841 1624.007812 -42.734360
645.214844 1668.147705 -111.366364
609.504822 1622.487793 -40.374359
726.232849 1623.877930 -42.526360
611.234863 1651.617920 -85.656357
750.057861 1616.397705 -30.904358
649.694824 1636.907715 -62.791351
742.179810 1618.327881 -33.901360
776.799866 1623.777832 -42.381355
628.677856 1671.877930 -117.156357
645.337830 1617.547852 -32.691360
748.334839 1619.507812 -35.729355
773.264832 1619.227783 -35.306358
638.032837 1647.627930 -79.451355
733.399841 1616.257812 -30.676361
650.287842 1625.337891 -44.801361
628.279846 1644.637939 -74.806351
747.002808 1618.217773 -33.724358
624.374817 1623.037842 -41.226357
665.682861 1660.017822 -98.716354
688.784851 1626.527832 -46.654358
739.324829 1618.437744 -34.076355
650.759827 1627.347900 -47.929359
676.019836 1624.307861 -43.201355
658.422852 1628.377930 -49.524361
651.119812 1635.717773 -60.936356
609.924866 1621.567871 -38.939362
785.827820 1620.157715 -36.744354
799.224854 1615.887939 -30.101357
681.562805 1628.307861 -49.414360
666.249817 1622.677734 -40.669357
631.429810 1653.057861 -87.904358
765.494812 1632.717773 -56.269363
665.759827 1655.487793 -91.684357
755.412842 1621.507812 -38.851357
766.837830 1627.667725 -48.416359
708.894836 1647.857910 -79.809357
660.682861 1653.027832 -87.846359
645.372864 1657.767822 -95.224365
612.637817 1660.897705 -100.091354
716.779846 1643.587891 -73.169357
677.612854 1625.507812 -45.056358
712.324829 1643.087891 -72.389359
707.912842 1665.127930 -106.659363
761.777832 1637.397705 -63.544357
769.287842 1650.887939 -84.519363
695.072815 1667.747803 -110.734360
777.409851 1667.357910 -110.129364
789.322815 1629.267822 -50.904358
799.714844 1655.097900 -91.069351
774.019836 1675.727783 -123.141357
806.994812 1676.007812 -123.579361
745.704834 1676.947754 -125.039352
706.634827 1679.357910 -128.784363
705.442810 1676.437744 -124.241364
820.864807 1649.297852 -82.054352
793.477844 1647.087891 -78.611359
825.457825 1671.167725 -116.051361
752.247864 1678.087891 -126.806351
781.442810 1652.037842 -86.314362
654.004822 1674.407715 -121.094360
699.162842 1672.037842 -117.409363
721.627808 1655.137939 -91.141357
762.619812 1674.097900 -120.611359
786.139832 1672.207764 -117.674362
823.907837 1654.987793 -90.896362
747.252808 1642.267822 -71.119354
774.264832 1661.597900 -101.169357
826.102844 1646.687744 -78.001358
719.017822 1669.207764 -112.996353
751.007812 1650.647705 -84.154358
814.477844 1658.657715 -96.611359
667.007812 1670.577881 -115.139359
788.942810 1670.077881 -114.359360
824.372864 1670.707764 -115.339355
809.494812 1649.707764 -82.694351
794.502808 1675.617920 -122.966354
794.694824 1644.437744 -74.499359
821.554810 1643.497803 -73.029358
705.404846 1651.237793 -85.059357
726.762817 1675.997803 -123.556351
810.357849 1671.907715 -117.199356
707.987854 1667.567871 -110.446365
822.607849 1631.827881 -54.886353
763.349854 1645.887939 -76.746353
642.534851 1672.777832 -118.551361
831.369812 1572.767822 -98.729355
828.822815 1572.567871 -107.051361
827.924866 1584.737793 -129.026352
606.604858 1569.057861 -99.669357
606.522827 1561.697754 -87.914352
605.944824 1601.147705 -147.086365
605.644836 1604.227783 -150.744354
647.552856 1558.757812 -91.711365
743.784851 1568.677734 -107.126358
797.314819 1588.397705 -137.796356
822.729858 1595.927734 -149.491364
824.797852 1593.507812 -145.741364
798.737854 1573.347900 -114.386353
708.102844 1559.377930 -92.674362
748.534851 1573.787842 -115.076355
651.842834 1556.817871 -88.689362
692.557861 1568.647705 -107.094360
825.504822 1555.357910 -86.429352
810.129822 1555.767822 -87.066360
819.334839 1592.167725 -143.659363
729.579834 1578.647705 -122.626358
803.942810 1596.807861 -150.866364
765.564819 1574.167725 -115.674362
815.349854 1579.447754 -123.881363
822.247864 1593.057861 -145.044357
794.909851 1561.627930 -96.169357
766.659851 1566.317871 -103.466354
753.194824 1571.267822 -111.154358
812.782837 1577.787842 -121.301361
816.999817 1555.207764 -86.189362
795.029846 1595.257812 -148.454361
773.982849 1587.687744 -136.691360
809.907837 1567.397705 -105.141357
728.284851 1579.847900 -124.501358
793.412842 1575.787842 -118.194351
756.662842 1575.457764 -117.679352
816.369812 1573.457764 -114.566360
720.724854 1566.657715 -104.004364
655.589844 1594.627930 -147.484360
771.447815 1598.017822 -152.746353
653.972839 1580.447754 -125.429352
700.797852 1592.107910 -143.564362
749.817810 1596.077881 -149.726364
792.324829 1600.907715 -157.234360
643.877808 1595.457764 -148.769363
725.299866 1582.507812 -128.639359
641.787842 1564.447754 -100.561356
775.547852 1598.877930 -154.081360
645.957825 1564.607910 -100.796356
735.302856 1591.807861 -143.101364
663.659851 1591.067871 -141.939362
630.327820 1573.877930 -115.211365
679.337830 1601.777832 -158.589355
757.764832 1595.757812 -149.226364
622.809814 1584.257812 -131.356354
617.992859 1602.317871 -159.436356
645.984863 1581.787842 -127.514359
686.527832 1581.237793 -126.654358
649.417847 1589.757812 -139.909363
665.302856 1577.137939 -120.291351
735.294861 1583.997803 -130.949356
680.802856 1574.617920 -116.366364
745.902832 1589.737793 -139.871353
719.119812 1599.417725 -154.924362
638.544861 1599.917725 -155.699356
695.879822 1575.627930 -117.934357
628.574829 1562.747803 -97.911362
771.332825 1595.657715 -149.069351
665.072815 1578.387939 -122.221359
831.997864 1543.677734 -66.674362
834.244812 1546.657715 -63.436356
833.692810 1531.907715 -54.511353
604.032837 1486.837891 -26.711357
601.849854 1538.687744 -57.201355
602.327820 1547.387939 -64.434357
600.612854 1493.317871 -21.526558
600.612854 1492.457764 -21.399055
600.612854 1523.187744 -35.484360
600.612854 1501.157715 -23.766556
600.612854 1515.797852 -36.221359
600.612854 1537.077881 -23.226662
600.612854 1569.597900 -65.811356
600.612854 1566.917725 -40.066360
600.612854 1527.247803 -18.876556
600.612854 1559.277832 -58.049362
835.864807 1518.007812 -33.101357
835.864807 1519.077881 -19.574158
835.864807 1535.397705 -51.221359
835.864807 1496.097900 -10.201561
835.864807 1561.577881 -67.061356
835.864807 1522.807861 -14.929161
835.864807 1552.717773 -55.481354
835.864807 1519.357910 -7.411560
835.864807 1550.367920 -50.144356
602.159851 1513.007812 3.715942
603.399841 1509.767822 10.918442
603.364807 1593.767822 -47.496361
602.089844 1566.677734 -33.806358
833.217834 1518.307861 3.778442
834.699829 1546.977783 -21.676559
834.064819 1572.307861 -36.861359
833.094849 1543.697754 -13.374062
605.144836 1530.957764 1.848442
605.904846 1529.947754 4.273338
607.899841 1541.447754 0.818344
829.912842 1557.277832 -14.161560
830.657837 1522.377930 8.513344
830.149841 1596.527832 -41.884361
829.282837 1589.117920 -34.954361
608.759827 1530.847900 10.313438
608.759827 1519.427734 21.403442
608.759827 1542.437744 9.600945
608.759827 1579.667725 -17.114159
608.759827 1600.347900 -26.866356
608.759827 1592.347900 -17.019058
827.017822 1527.537842 19.368443
827.017822 1523.367920 30.890842
827.017822 1540.437744 17.403442
827.017822 1560.387939 2.995941
827.017822 1595.067871 -31.356361
827.017822 1578.047852 -11.374062
659.774841 1525.257812 33.910942
629.157837 1522.787842 35.618443
684.754822 1517.777832 39.095943
646.057861 1587.557861 -9.311562
626.602844 1598.577881 -16.954056
784.252808 1530.427734 30.320843
615.699829 1531.257812 29.745941
735.229858 1540.397705 23.405941
652.137817 1581.507812 -5.116661
652.604858 1556.247803 12.410942
703.544861 1526.857910 32.798443
655.682861 1522.817871 35.598442
690.977844 1529.517822 30.948341
685.357849 1571.757812 1.648338
709.779846 1543.197754 21.465942
793.137817 1524.687744 34.298443
705.939819 1527.967773 32.030941
625.074829 1567.217773 4.800941
648.007812 1526.027832 33.373444
744.042847 1546.327881 19.293442
676.232849 1533.187744 28.403442
785.822815 1516.767822 39.798443
642.407837 1522.417725 35.880943
621.552856 1565.457764 6.023338
646.374817 1539.197754 24.238441
652.542847 1553.757812 14.135841
720.602844 1527.387939 32.430843
680.372864 1560.737793 9.298439
638.984863 1589.467773 -10.636559
662.469849 1551.967773 15.380943
644.454834 1524.617920 34.348442
645.077820 1534.007812 27.838444
711.022827 1525.457764 33.765842
648.517822 1574.007812 0.090942
707.074829 1519.267822 38.065941
652.174866 1588.597900 -10.034058
741.704834 1544.367920 20.650944
610.387817 1573.267822 0.598442
633.467834 1524.877930 34.175941
626.682861 1587.867920 -9.529060
640.439819 1570.557861 2.478439
725.569824 1522.187744 36.035942
619.164856 1553.857910 14.070843
757.349854 1591.867920 -12.299156
732.012817 1559.647705 10.050941
746.352844 1573.077881 0.730942
669.159851 1591.487793 -12.039162
766.342834 1552.337891 15.118443
825.504822 1593.307861 -13.299057
638.912842 1607.657715 -23.254059
815.579834 1604.687744 -21.194061
793.769836 1560.687744 9.330841
771.357849 1558.607910 10.773445
801.639832 1595.927734 -15.114159
788.677856 1609.077881 -24.241554
783.889832 1584.247803 -7.014061
756.419861 1549.497803 17.090942
797.072815 1587.347900 -9.164162
699.412842 1608.017822 -23.506561
673.504822 1606.447754 -22.419159
769.692810 1553.777832 14.125942
805.024841 1610.337891 -25.114357
735.987854 1583.837891 -6.731659
785.194824 1582.657715 -5.914162
755.804810 1614.067871 -27.704361
801.762817 1606.967773 -22.776558
820.017822 1564.207764 6.885941
689.809814 1581.857910 -5.356659
792.099854 1600.367920 -18.199059
722.112854 1588.257812 -9.794159
772.397827 1578.977783 -3.359055
808.534851 1603.217773 -20.176659
791.329834 1603.037842 -20.049156
755.302856 1607.347900 -23.041557
815.827820 1604.887939 -21.331558
778.364807 1604.777832 -21.259155
736.537842 1606.597900 -22.516556
713.247864 1570.747803 2.350945
782.494812 1589.057861 -10.351662
681.602844 1605.187744 -21.541656
698.559814 1606.637939 -22.549156
643.974854 1613.587891 -27.369354
792.134827 1613.807861 -27.524361
770.832825 1565.317871 6.118439
728.377808 1608.857910 -24.086555
774.507812 1609.607910 -24.609055
827.199829 1491.067871 -40.911362
827.232849 1487.977783 -38.696358
828.419861 1535.407715 -68.941360
831.139832 1505.547852 -42.149361
608.664856 1505.127930 -50.839355
608.739807 1485.487793 -37.396355
605.194824 1551.127930 -74.196365
607.172852 1535.797852 -68.439362
707.352844 1509.387939 -54.024353
678.529846 1525.967773 -65.526352
736.684814 1509.477783 -54.086365
766.649841 1495.167725 -44.159355
674.734863 1497.317871 -45.656357
610.047852 1546.857910 -80.016357
655.804810 1518.027832 -60.021362
638.332825 1515.047852 -57.956360
671.734863 1510.187744 -54.579361
674.322815 1525.877930 -65.466354
673.074829 1506.527832 -52.041359
700.789856 1491.167725 -41.386360
684.734863 1518.967773 -60.674362
613.694824 1548.737793 -81.324356
635.749817 1496.467773 -45.061356
620.429810 1488.037842 -39.214355
735.259827 1489.657715 -40.339355
660.029846 1534.977783 -71.776352
720.997864 1501.867920 -48.811356
610.569824 1504.457764 -50.609360
760.029846 1484.877930 -37.021355
627.267822 1507.097900 -52.439362
641.364807 1526.167725 -65.669357
617.619812 1515.147705 -58.021362
726.869812 1511.377930 -55.404358
609.012817 1496.337891 -44.976357
783.084839 1491.237793 -41.436356
674.492859 1501.997803 -48.896355
692.424866 1498.267822 -46.314362
662.437805 1522.967773 -63.444351
655.929810 1494.997803 -44.044357
719.194824 1515.147705 -58.024353
789.849854 1524.967773 -64.834351
804.087830 1534.417725 -71.389359
786.947815 1515.897705 -58.546356
775.642822 1546.427734 -79.719360
743.094849 1544.667725 -78.501358
789.182861 1508.987793 -53.749359
765.284851 1540.317871 -75.479355
748.754822 1510.167725 -54.569351
703.259827 1553.057861 -84.324356
812.397827 1529.717773 -68.126358
714.677856 1525.527832 -65.221359
734.327820 1529.547852 -68.014359
826.812805 1513.557861 -56.916351
736.867859 1540.207764 -75.406357
755.564819 1521.597900 -62.494354
800.542847 1535.877930 -72.401352
815.254822 1511.047852 -55.176361
791.612854 1506.127930 -51.769356
815.469849 1551.867920 -83.491364
773.152832 1510.907715 -55.081360
670.707825 1535.287842 -71.996353
724.867859 1551.917725 -83.529358
724.672852 1552.367920 -83.841354
778.699829 1531.827881 -69.594360
690.852844 1539.877930 -75.174362
757.499817 1517.517822 -59.664352
826.314819 1520.917725 -62.021362
770.519836 1536.987793 -73.174362
821.137817 1514.627930 -57.661362
748.327820 1531.287842 -69.221359
752.704834 1534.017822 -71.114365
835.602844 1431.237793 -7.791656
831.917847 1435.137939 -15.889061
603.832825 1426.377930 -12.974060
601.309814 1438.017822 -10.214058
600.612854 1398.227783 8.355942
600.612854 1416.027832 0.420944
600.612854 1426.047852 7.890839
600.612854 1421.017822 1.188438
600.612854 1480.707764 1.963440
600.612854 1444.687744 11.780941
600.612854 1496.387939 3.625938
600.612854 1474.557861 11.498444
600.612854 1498.897705 3.403442
835.864807 1406.317871 25.833443
835.864807 1418.317871 23.650944
835.864807 1414.307861 19.588444
835.864807 1422.087891 3.883446
835.864807 1418.907715 7.418442
835.864807 1483.247803 -14.891556
