ply
format ascii 1.0
element vertex 1303
property float x
property float y
property float z
end_header
-854.017578 -1193.987915 -421.962341
-818.230591 -1190.447876 -416.302368
-929.854614 -1193.567871 -421.293365
-824.994629 -1187.667847 -411.862366
-811.142578 -1180.987915 -401.182343
-841.287598 -1177.407837 -395.462341
-836.187622 -1177.767944 -396.036346
-915.804626 -1174.163940 -389.665344
-818.447632 -1174.707886 -390.784363
-890.349609 -1167.735840 -376.447357
-893.858582 -1166.715942 -374.352356
-911.640625 -1166.675903 -374.270355
-819.910583 -1165.867920 -372.611359
-805.157593 -1168.651855 -378.329346
-843.702637 -1162.699951 -366.091370
-896.216614 -1158.671875 -356.806366
-944.786621 -1156.279907 -350.173370
-909.095581 -1158.475952 -356.266357
-847.924622 -1156.927856 -351.975342
-913.280579 -1153.631836 -342.835358
-906.388611 -1151.727905 -337.553345
-826.208618 -1150.127930 -333.117371
-828.081604 -1149.887939 -332.450348
-912.422607 -1149.587891 -331.622345
-931.640625 -1146.731934 -321.895355
-925.188599 -1141.423950 -300.164368
-905.715637 -1142.459839 -304.415344
-826.040588 -1144.515869 -312.827362
-829.968628 -1146.035889 -319.045349
-863.874634 -1144.163940 -311.381348
-829.661621 -1140.003906 -294.356354
-926.364624 -1138.851929 -286.702362
-896.056580 -1138.943848 -287.364349
-928.836609 -1138.583862 -284.681366
-874.662598 -1137.643921 -277.656342
-908.960632 -1137.351929 -275.486359
-834.576599 -1137.659912 -277.782349
-823.182617 -1137.523926 -276.767365
-806.333618 -1135.579834 -262.252350
-875.266602 -1134.931885 -255.429337
-810.214600 -1134.939941 -255.608353
-876.228638 -1134.675903 -249.008347
-864.181580 -1134.459839 -243.616348
-847.371582 -1134.447876 -243.318344
-873.355591 -1134.031860 -232.916336
-864.964600 -1133.999878 -230.972336
-926.794617 -1134.099854 -223.324341
-883.845581 -1134.467896 -218.440338
-881.351624 -1134.711914 -215.393341
-844.860596 -1135.535889 -205.096344
-849.537598 -1135.427856 -206.466339
-890.670593 -1135.431885 -206.388336
-835.672607 -1136.483887 -193.254333
-941.253601 -1135.875854 -200.880341
-887.472595 -1137.683838 -183.763336
-933.978638 -1138.055908 -181.800339
-920.273621 -1138.363892 -180.156342
-912.176636 -1139.211914 -175.664337
-920.543579 -1142.143921 -160.115341
-824.284607 -1141.931885 -161.243347
-943.241638 -1142.903931 -156.091339
-850.351624 -1144.871948 -148.455338
-838.827637 -1144.099854 -151.007339
-855.192627 -1145.463867 -146.495346
-855.970581 -1148.187866 -137.459335
-887.142578 -1150.279907 -130.527344
-814.506592 -1147.695923 -139.087341
-822.960632 -1147.523926 -139.655334
-881.011597 -1151.711914 -125.775345
-933.984619 -1154.019897 -118.475342
-862.684631 -1154.807861 -116.603348
-833.204590 -1158.879883 -106.955338
-835.624634 -1154.543945 -117.235336
-862.059631 -1169.115845 -83.691338
-857.920593 -1168.019897 -85.675339
-813.451599 -1166.355835 -89.243340
-839.724609 -1164.459839 -93.731339
-896.099609 -1164.527832 -93.571342
-820.259583 -1161.383911 -101.031342
-938.570618 -1163.331909 -96.407341
-821.594604 -1187.599854 -51.527542
-841.476624 -1190.811890 -46.951538
-881.533630 -1184.727905 -55.615540
-897.970581 -1184.819946 -55.483543
-836.640625 -1183.383911 -57.939537
-814.981628 -1178.671875 -66.443542
-875.620605 -1182.047852 -60.351540
-853.724609 -1174.555908 -73.875542
-871.305603 -1173.231934 -76.267540
-886.281616 -1207.119873 -24.411543
-899.133606 -1206.059937 -25.623541
-812.618591 -1203.029907 -29.559542
-842.677612 -1201.939941 -31.103544
-937.731628 -1204.009888 -28.167543
-936.963623 -1192.047852 -45.191544
-911.022583 -1251.919922 21.532488
-897.720581 -1244.849976 15.004467
-903.510620 -1246.079956 16.140457
-865.658630 -1244.519897 14.696487
-843.265625 -1236.939941 7.704457
-860.521606 -1239.309937 9.888457
-835.910583 -1230.879883 2.108458
-939.498596 -1230.749878 1.984457
-868.312622 -1227.759888 -0.823544
-844.953613 -1224.579956 -4.451542
-812.430603 -1219.709839 -10.019543
-936.327637 -1221.539917 -7.931543
-904.778625 -1209.449951 -21.743544
-835.422607 -1260.189941 28.028458
-886.227600 -1257.619873 26.120438
-826.159607 -1275.529907 39.428459
-848.684631 -1273.299927 37.764458
-869.213623 -1271.639893 36.540459
-925.187622 -1268.859863 34.468456
-911.768616 -1338.139893 73.884460
-804.510620 -1342.759888 75.976456
-877.794617 -1331.329956 70.792458
-865.819580 -1334.579956 72.264458
-913.193604 -1325.279907 68.052460
-814.185608 -1319.309937 65.340454
-864.868591 -1317.419922 64.480461
-803.452637 -1311.239868 61.496460
-890.533630 -1309.609863 60.532455
-867.978638 -1295.309937 52.104458
-852.309631 -1303.249878 56.784454
-813.657593 -1295.919922 52.464455
-874.710632 -1292.799927 50.624458
-863.516602 -1291.829956 50.056458
-883.225586 -1290.659912 49.368458
-816.051636 -1353.499878 79.776459
-888.358582 -1354.459961 80.092461
-888.791626 -1358.579956 81.456459
-922.525635 -1372.349976 86.012459
-867.014587 -1373.029907 86.236458
-831.502625 -1362.189941 82.648460
-872.630615 -1366.589966 84.104454
-926.818604 -1378.939941 88.108459
-803.923584 -1385.649902 89.560463
-903.462585 -1388.619873 90.204460
-869.192627 -1393.579956 91.276459
-908.164612 -1391.499878 90.824463
-883.370605 -1399.799927 92.620461
-882.402588 -1407.099976 94.200462
-857.400635 -1407.839966 94.360458
-882.160583 -1417.009888 95.872459
-891.958618 -1422.519897 96.460457
-856.296631 -1419.439941 96.132462
-872.814636 -1433.129883 97.596458
-916.242615 -1438.599976 98.180458
-836.312622 -1439.819946 98.308456
-833.948608 -1443.019897 98.652458
-809.752625 -1450.889893 99.160461
-842.592590 -1454.499878 99.160461
-898.728638 -1464.259888 99.160461
-914.152588 -1466.039917 99.160461
-892.404602 -1478.129883 99.160461
-854.991638 -1481.319946 99.160461
-853.034607 -1485.559937 98.896461
-929.944580 -1499.559937 97.400459
-898.066589 -1499.829956 97.372459
-827.208618 -1504.759888 96.844460
-870.316589 -1512.049927 96.064461
-826.708618 -1508.259888 96.468460
-874.497620 -1523.279907 94.300461
-808.068604 -1519.299927 95.164459
-869.807617 -1524.579956 94.020462
-897.840637 -1529.679932 92.920456
-938.469604 -1533.829956 92.020462
-880.354614 -1536.759888 91.384460
-836.549622 -1532.159912 92.384460
-850.928589 -1542.939941 90.048462
-876.657593 -1552.379883 88.008461
-881.401611 -1556.629883 86.628456
-855.319580 -1560.989868 85.188461
-898.198608 -1571.119873 81.836456
-858.963623 -1566.949951 83.216461
-826.169617 -1573.209961 81.144455
-898.374634 -1579.559937 79.044456
-803.291626 -1582.609863 78.036461
-823.183594 -1586.599976 76.656456
-920.269592 -1598.469971 71.272461
-830.113586 -1592.179932 74.124458
-917.941589 -1598.729980 71.156456
-918.316589 -1602.279907 69.540459
-939.735596 -1607.969971 66.960457
-850.159607 -1611.839966 65.204460
-846.016602 -1616.139893 63.252457
-825.822632 -1624.959961 58.340454
-864.385620 -1630.939941 54.820457
-828.603638 -1628.479980 56.264458
-827.057617 -1632.619873 53.828461
-867.375610 -1635.359863 52.216457
-828.519592 -1645.339966 46.336456
-845.272583 -1640.589966 49.132458
-908.838623 -1650.289917 43.164459
-934.042603 -1653.809937 40.552460
-844.554626 -1655.119873 39.580460
-843.889587 -1659.419922 36.380455
-893.088623 -1664.679932 32.472458
-848.381592 -1668.209961 29.852428
-903.035583 -1676.769897 23.488478
-909.144592 -1677.519897 22.840467
-832.464600 -1679.279907 21.208448
-867.838623 -1684.899902 16.020458
-887.881592 -1684.589966 16.312447
-862.520630 -1688.999878 12.240427
-874.172607 -1689.129883 12.120438
-942.437622 -1686.659912 14.396437
-939.087585 -1690.409912 10.936478
-942.285583 -1685.179932 15.764477
-936.055603 -1702.039917 0.196457
-812.665588 -1704.269897 -2.163542
-925.984619 -1710.549927 -9.343542
-880.025635 -1705.259888 -3.291542
-814.784607 -1713.019897 -12.163542
-867.651611 -1717.319946 -17.075544
-897.488586 -1720.779907 -21.035543
-899.605591 -1724.859863 -25.687544
-860.173584 -1728.849976 -31.015543
-931.550598 -1733.269897 -37.307541
-823.142578 -1733.059937 -37.015541
-817.614624 -1734.829956 -39.535545
-908.336609 -1738.939941 -45.387543
-915.326599 -1737.259888 -42.991539
-867.025635 -1743.999878 -52.591537
-930.008606 -1747.259888 -57.551544
-819.032593 -1748.219971 -59.287544
-903.414612 -1755.399902 -72.243538
-856.877625 -1748.619873 -60.023544
-830.619629 -1750.069946 -62.635544
-840.037598 -1753.299927 -68.455544
-928.308594 -1759.239868 -79.179543
-904.904602 -1759.229980 -79.163544
-932.654602 -1760.799927 -82.003342
-831.265625 -1761.699951 -83.631340
-920.808594 -1765.059937 -90.579338
-889.773621 -1765.399902 -91.395340
-924.252625 -1774.429932 -112.775345
-921.665588 -1772.559937 -108.359344
-811.616638 -1771.359863 -105.511337
-853.123596 -1770.459961 -103.383339
-871.482605 -1773.789917 -111.255341
-839.172607 -1777.289917 -119.635345
-847.994629 -1778.839966 -124.751343
-865.195618 -1778.059937 -122.163345
-850.665588 -1782.519897 -136.991348
-860.849609 -1780.799927 -131.287338
-812.832581 -1787.219971 -152.551346
-865.183594 -1785.379883 -146.463333
-928.194580 -1786.529907 -150.267334
-924.091614 -1788.479980 -158.883347
-868.493591 -1788.879883 -161.007339
-926.333618 -1792.059937 -177.864334
-865.512634 -1790.399902 -169.103348
-875.140625 -1795.999878 -253.557327
-843.633606 -1796.259888 -246.895340
-884.787598 -1796.259888 -246.899338
-879.476624 -1796.439941 -242.624344
-849.959595 -1796.699951 -235.868332
-886.105591 -1796.839966 -229.994339
-912.302612 -1796.839966 -229.489334
-859.326599 -1796.599976 -221.073334
-937.952637 -1796.439941 -219.074341
-888.065613 -1795.989868 -213.451340
-926.273621 -1795.369873 -205.768341
-872.682617 -1795.239868 -204.164337
-818.561584 -1794.119873 -190.120346
-822.961609 -1794.109863 -190.005341
-911.766602 -1794.029907 -189.007339
-824.749634 -1791.869873 -176.862335
-845.887634 -1791.389893 -174.342346
-805.203613 -1740.099976 -416.790344
-888.352600 -1740.429932 -416.262360
-900.574585 -1745.859863 -407.596344
-910.134583 -1743.239868 -411.773346
-904.088623 -1751.199951 -399.045349
-817.727600 -1748.149902 -403.931366
-848.662598 -1750.579956 -400.046356
-826.849609 -1757.389893 -388.222351
-923.037598 -1758.849976 -385.228363
-823.835632 -1762.119873 -378.504364
-935.785583 -1760.249878 -382.352356
-945.338623 -1760.099976 -382.649353
-901.294617 -1763.439941 -375.786346
-831.632629 -1769.029907 -364.286346
-899.253601 -1768.759888 -364.844360
-823.706604 -1770.759888 -360.741364
-821.361633 -1772.739868 -355.262360
-804.267578 -1777.559937 -341.911346
-907.907593 -1774.409912 -350.633362
-868.663635 -1778.189941 -340.150360
-915.602600 -1777.239868 -342.779358
-907.222595 -1779.419922 -336.728363
-872.045593 -1783.229980 -325.535370
-864.873596 -1784.809937 -319.072357
-840.829590 -1784.649902 -319.740356
-910.607605 -1786.339966 -312.820343
-938.150635 -1785.679932 -315.540344
-912.682617 -1789.139893 -301.337341
-884.212585 -1789.639893 -299.305359
-820.306580 -1793.449951 -275.864349
-925.594604 -1791.279907 -292.105347
-812.998596 -1792.799927 -280.748352
-916.852600 -1791.889893 -287.538361
-876.122620 -1794.139893 -270.700348
-828.927612 -1794.399902 -268.775360
-816.981628 -1795.539917 -260.244354
-896.620605 -1795.159912 -263.070343
-897.506592 -1794.859863 -265.373352
-830.428589 -1715.379883 -449.397369
-839.762634 -1718.979980 -444.811371
-905.965637 -1719.019897 -444.760345
-816.962585 -1719.289917 -444.423370
-873.672607 -1724.799927 -437.405365
-871.746582 -1724.839966 -437.348358
-924.524597 -1727.219971 -434.320343
-930.359619 -1726.519897 -435.215363
-861.736633 -1733.489868 -426.332367
-871.934631 -1736.309937 -422.738342
-910.310608 -1696.429932 -468.988342
-928.646606 -1698.449951 -466.916351
-922.832581 -1699.059937 -466.286346
-907.482605 -1699.419922 -465.922363
-874.538635 -1711.049927 -453.978363
-851.677612 -1710.219971 -454.830353
-927.600586 -1714.399902 -450.530365
-866.998596 -1715.069946 -449.797363
-852.724609 -1688.889893 -476.466370
-877.885620 -1691.519897 -474.032349
-848.882629 -1638.589966 -514.108337
-861.289612 -1645.199951 -509.724365
-891.076599 -1644.839966 -509.960327
-933.256592 -1655.269897 -503.044373
-854.531616 -1659.839966 -500.008362
-888.608582 -1655.889893 -502.630371
-827.244629 -1663.719971 -497.338379
-868.244629 -1675.439941 -487.618347
-851.298584 -1677.479980 -485.921356
-919.584595 -1675.739868 -487.371368
-936.600586 -1683.539917 -480.902344
-883.188599 -1633.079956 -517.679382
-823.194580 -1627.049927 -520.808350
-910.967590 -1616.379883 -526.357361
-940.971619 -1621.029907 -523.938354
-882.790588 -1562.559937 -548.376343
-921.765625 -1565.049927 -547.696350
-864.931580 -1571.269897 -545.792358
-929.020630 -1577.469971 -543.369385
-811.099609 -1587.829956 -539.318359
-871.248596 -1582.819946 -541.277344
-909.820618 -1584.199951 -540.739380
-851.266602 -1593.819946 -536.975342
-848.945618 -1602.019897 -533.770386
-883.292603 -1608.869873 -530.258362
-816.622620 -1615.299927 -526.914368
-904.399597 -1611.509888 -528.884338
-821.393616 -1381.179932 -551.889343
-831.701599 -1387.279907 -553.552368
-932.471619 -1384.299927 -552.739380
-818.760620 -1393.439941 -555.233337
-899.943604 -1392.799927 -555.058350
-810.670593 -1395.809937 -555.829346
-905.766602 -1399.999878 -556.505371
-908.521606 -1405.179932 -557.338379
-847.926636 -1407.669922 -557.739380
-911.304626 -1412.049927 -558.446350
-875.316589 -1418.179932 -559.434326
-871.169617 -1417.699951 -559.355347
-908.662598 -1422.219971 -560.084351
-924.027588 -1427.869873 -560.995361
-805.684631 -1433.829956 -561.563354
-942.852600 -1433.719971 -561.557373
-838.744629 -1448.469971 -562.343384
-811.659607 -1451.769897 -562.519348
-840.146606 -1449.799927 -562.414368
-892.225586 -1454.719971 -562.677368
-816.967590 -1465.399902 -563.245361
-834.904602 -1466.589966 -563.185364
-868.286621 -1471.859863 -562.904358
-929.768616 -1468.819946 -563.066345
-924.302612 -1475.369873 -562.717346
-836.754578 -1484.369873 -562.237366
-918.150635 -1483.239868 -562.297363
-912.496582 -1489.009888 -561.990356
-860.724609 -1493.299927 -561.762329
-880.418579 -1497.029907 -561.563354
-882.067627 -1501.449951 -561.241333
-850.354614 -1508.469971 -560.111328
-890.191589 -1505.519897 -560.586365
-864.650635 -1511.089966 -559.688354
-858.153625 -1517.299927 -558.687378
-806.964600 -1519.199951 -558.383362
-925.185608 -1520.049927 -558.244385
-821.128601 -1530.379883 -556.580383
-862.658630 -1532.899902 -556.175354
-852.355591 -1537.419922 -555.230347
-928.994629 -1539.789917 -554.584351
-927.116638 -1542.309937 -553.896362
-891.030579 -1550.189941 -551.748352
-920.178589 -1562.339966 -548.435364
-888.725586 -1482.679932 -145.931335
-892.899597 -1380.899902 -220.365341
-894.870605 -1380.659912 -241.014328
-893.551636 -1401.459961 -288.163361
-893.324585 -1515.009888 -301.139343
-890.282593 -1521.639893 -295.899353
-895.872620 -1418.639893 -160.507339
-892.016602 -1399.369873 -177.910339
-893.946594 -1447.789917 -210.614334
-889.691589 -1500.699951 -222.063339
-891.925598 -1492.199951 -244.860336
-890.680603 -1449.709961 -253.975327
-894.718628 -1430.339966 -220.609344
-890.031616 -1447.769897 -227.478348
-891.974609 -1475.979980 -246.652328
-884.152588 -1378.979980 -213.070343
-887.150635 -1579.219971 -355.689362
-884.724609 -1600.289917 -332.556366
-883.095581 -1570.329956 -100.155342
-886.720581 -1535.459961 -78.923538
-886.979614 -1407.459961 -73.815544
-882.509583 -1343.699951 -115.799347
-886.156616 -1324.899902 -139.235336
-884.425598 -1298.599976 -210.849335
-884.240601 -1310.709961 -297.696350
-884.576599 -1404.339966 -92.055344
-886.861633 -1389.109863 -109.407333
-888.607605 -1392.319946 -112.707336
-886.134583 -1497.779907 -91.463341
-883.974609 -1588.999878 -155.999344
-886.785583 -1594.579956 -199.713333
-885.878601 -1469.579956 -385.387360
-884.753601 -1314.779907 -286.199341
-887.523621 -1321.279907 -177.790344
-884.025635 -1326.089966 -200.210342
-882.049622 -1611.539917 -292.636353
-882.049622 -1621.659912 -175.919342
-882.049622 -1587.719971 -117.007339
-882.049622 -1485.479980 -69.419540
-882.049622 -1439.159912 -65.615540
-882.049622 -1349.319946 -350.452362
-882.049622 -1447.549927 -382.009369
-882.049622 -1431.569946 -388.287354
-882.049622 -1348.179932 -150.895340
-882.049622 -1534.389893 -113.727341
-882.049622 -1586.249878 -164.023346
-882.049622 -1607.019897 -268.052368
-882.049622 -1607.419922 -273.816345
-882.049622 -1572.399902 -297.195343
-882.049622 -1324.489868 -285.975342
-882.049622 -1339.259888 -305.567352
-882.049622 -1348.359863 -309.940369
-882.049622 -1573.539917 -175.473343
-882.049622 -1583.229980 -228.218338
-882.049622 -1568.329956 -298.788361
-882.049622 -1320.089966 -237.596329
-882.049622 -1329.129883 -230.449341
-882.049622 -1358.969971 -146.311340
-882.049622 -1315.979980 -202.848343
-882.049622 -1362.069946 -124.927338
-882.049622 -1374.889893 -151.143341
-882.049622 -1381.339966 -145.671341
-882.049622 -1330.479980 -305.379364
-882.049622 -1418.619873 -111.639343
-882.049622 -1358.159912 -134.151337
-882.049622 -1410.189941 -100.499344
-882.049622 -1418.849976 -83.879341
-882.049622 -1436.659912 -103.859344
-882.049622 -1439.869873 -74.903542
-882.049622 -1456.999878 -80.623344
-882.049622 -1455.609863 -66.771538
-882.049622 -1335.559937 -326.974365
-882.049622 -1349.549927 -331.614349
-882.049622 -1469.049927 -100.175339
-882.049622 -1384.079956 -331.450348
-882.049622 -1490.859863 -85.343338
-882.049622 -1368.769897 -353.838348
-882.049622 -1414.719971 -369.246368
-882.049622 -1504.999878 -115.739334
-882.049622 -1555.559937 -147.351334
-882.049622 -1502.589966 -364.636353
-882.049622 -1495.239868 -382.313354
-882.049622 -1521.379883 -349.420349
-882.049622 -1578.449951 -137.703339
-882.049622 -1588.529907 -137.203339
-882.049622 -1514.849976 -366.242371
-882.049622 -1580.609863 -194.483337
-882.049622 -1581.769897 -195.680344
-882.049622 -1601.539917 -155.939346
-882.049622 -1607.379883 -206.237335
-882.049622 -1596.839966 -171.515335
-882.049622 -1587.979980 -172.267334
-882.049622 -1562.439941 -361.319366
-882.049622 -1586.779907 -287.686371
-882.049622 -1562.289917 -314.522369
-882.049622 -1591.629883 -182.518341
-882.049622 -1562.419922 -344.684357
-882.049622 -1575.289917 -340.268341
-882.049622 -1610.039917 -222.516342
-882.049622 -1610.289917 -214.639343
-882.049622 -1614.779907 -212.960342
-882.049622 -1587.709961 -337.690369
-882.049622 -1612.319946 -252.158340
-887.192627 -1522.259888 -164.367340
-882.049622 -1538.119873 -177.369339
-882.049622 -1535.609863 -173.317337
-876.242615 -1553.819946 -226.568344
-882.049622 -1559.409912 -237.814346
-888.157593 -1546.109863 -260.626343
-882.049622 -1525.989868 -296.793365
-879.614624 -1503.749878 -309.220367
-882.365601 -1387.919922 -268.084351
-888.725586 -1426.899902 -239.212326
-888.725586 -1413.409912 -239.979355
-888.725586 -1434.939941 -263.381348
-888.725586 -1473.159912 -270.197357
-888.725586 -1453.039917 -275.139343
-888.725586 -1511.269897 -250.266342
-888.725586 -1511.329956 -242.207352
-888.725586 -1508.359863 -217.733337
-888.725586 -1439.619873 -186.932343
-888.725586 -1434.839966 -228.891342
-888.725586 -1469.049927 -213.830338
-888.725586 -1474.259888 -212.892334
-888.725586 -1439.789917 -208.935333
-888.725586 -1452.959961 -209.477341
-888.725586 -1451.299927 -191.896347
-888.725586 -1491.989868 -206.699341
-888.725586 -1501.559937 -210.249344
-896.141602 -1383.209961 -246.828354
-896.141602 -1455.899902 -162.531342
-896.141602 -1456.929932 -174.330338
-896.141602 -1479.299927 -152.879333
-896.141602 -1474.769897 -161.915344
-896.141602 -1477.169922 -166.427338
-896.141602 -1477.659912 -170.339340
-896.141602 -1479.909912 -193.382339
-896.141602 -1524.879883 -170.503342
-896.141602 -1532.389893 -181.019348
-896.141602 -1542.709961 -235.874344
-896.141602 -1549.749878 -244.151352
-896.141602 -1538.799927 -249.440353
-896.141602 -1539.219971 -248.984329
-896.141602 -1530.579956 -272.845367
-896.141602 -1422.289917 -303.309357
-896.141602 -1424.839966 -275.938354
-896.141602 -1391.949951 -210.506348
-896.141602 -1409.319946 -179.595337
-896.141602 -1471.379883 -195.616348
-896.141602 -1496.149902 -214.968338
-896.141602 -1496.959961 -251.943344
-896.141602 -1435.429932 -233.608337
-896.141602 -1429.419922 -237.951340
-896.141602 -1537.059937 -223.533340
-896.141602 -1391.869873 -255.204330
-896.141602 -1405.819946 -264.544342
-896.141602 -1469.299927 -277.250366
-896.141602 -1524.749878 -229.389343
-882.049622 -1394.549927 -287.908356
-882.049622 -1364.199951 -218.766342
-882.049622 -1405.219971 -159.695343
-882.049622 -1477.439941 -130.575348
-882.049622 -1477.569946 -136.167343
-882.049622 -1473.549927 -136.183334
-888.725586 -1582.219971 -246.778336
-888.725586 -1380.209961 -372.881348
-888.725586 -1318.999878 -151.295334
-888.725586 -1333.189941 -157.175339
-888.725586 -1488.689941 -67.979538
-888.725586 -1499.219971 -80.227341
-888.725586 -1538.689941 -88.887344
-888.725586 -1614.259888 -294.435364
-888.725586 -1608.259888 -295.837341
-888.725586 -1547.679932 -376.897369
-888.725586 -1440.119873 -95.031342
-888.725586 -1396.839966 -341.929352
-888.725586 -1345.099976 -298.710358
-888.725586 -1581.539917 -240.207352
-888.725586 -1433.779907 -122.239334
-888.725586 -1423.769897 -120.159348
-888.725586 -1353.029907 -235.564346
-888.725586 -1387.039917 -312.279358
-888.725586 -1414.039917 -331.156342
-888.725586 -1449.859863 -348.102356
-888.725586 -1339.649902 -157.675339
-888.725586 -1333.269897 -192.828339
-888.725586 -1324.049927 -231.976334
-888.725586 -1357.409912 -187.200348
-888.725586 -1350.449951 -188.739334
-888.725586 -1359.639893 -164.899338
-888.725586 -1390.349976 -94.219337
-888.725586 -1356.919922 -123.359344
-888.725586 -1373.479980 -154.423340
-888.725586 -1373.099976 -165.483337
-888.725586 -1339.049927 -261.208344
-888.725586 -1362.899902 -131.115341
-888.725586 -1376.219971 -141.903336
-888.725586 -1399.739868 -111.827347
-888.725586 -1419.029907 -113.663345
-888.725586 -1409.609863 -123.123337
-888.725586 -1337.319946 -287.381348
-888.725586 -1358.319946 -320.446350
-888.725586 -1440.379883 -71.755539
-888.725586 -1357.459961 -335.734344
-888.725586 -1376.809937 -346.586365
-888.725586 -1473.539917 -92.299339
-888.725586 -1432.329956 -78.335541
-888.725586 -1461.939941 -90.547340
-888.725586 -1376.009888 -319.222351
-888.725586 -1403.429932 -327.956360
-888.725586 -1356.899902 -325.832367
-888.725586 -1363.659912 -333.098358
-888.725586 -1375.059937 -335.866364
-888.725586 -1371.659912 -354.914368
-888.725586 -1377.779907 -364.417358
-888.725586 -1504.399902 -91.891342
-888.725586 -1472.469971 -81.215340
-888.725586 -1515.849976 -108.191345
-888.725586 -1497.109863 -105.631340
-888.725586 -1519.179932 -111.551346
-888.725586 -1404.439941 -347.241364
-888.725586 -1419.479980 -352.190369
-888.725586 -1410.229980 -352.584351
-888.725586 -1387.109863 -348.404358
-888.725586 -1560.109863 -112.779343
-888.725586 -1481.209961 -367.023346
-888.725586 -1469.279907 -387.218353
-888.725586 -1484.279907 -353.021362
-888.725586 -1492.909912 -356.412354
-888.725586 -1477.249878 -384.497345
-888.725586 -1578.629883 -162.427338
-888.725586 -1494.219971 -369.991364
-888.725586 -1494.569946 -381.866364
-888.725586 -1485.829956 -105.619339
-888.725586 -1520.499878 -125.991348
-888.725586 -1576.129883 -141.151337
-888.725586 -1582.639893 -144.727341
-888.725586 -1605.319946 -155.607346
-888.725586 -1583.629883 -187.564346
-888.725586 -1608.099976 -162.803345
-888.725586 -1514.119873 -352.290344
-888.725586 -1568.839966 -301.962341
-888.725586 -1544.419922 -346.409363
-888.725586 -1620.859863 -230.509338
-888.725586 -1618.719971 -262.412354
-888.725586 -1607.639893 -281.538361
-888.725586 -1585.089966 -300.036346
-888.725586 -1591.439941 -320.630371
-888.725586 -1575.959961 -322.167358
-882.049622 -1451.699951 -341.049347
-882.049622 -1467.169922 -327.539368
-878.307617 -1477.439941 -347.937347
-877.161621 -1498.659912 -343.874359
-877.920593 -1574.029907 -274.640350
-878.090637 -1568.779907 -177.508347
-876.274597 -1559.429932 -162.547348
-875.372620 -1363.709961 -174.322342
-876.083618 -1352.059937 -203.091339
-878.403625 -1350.219971 -212.777344
-874.007629 -1548.379883 -177.864334
-877.297607 -1531.129883 -293.450348
-888.533630 -1429.899902 -309.344360
-885.605591 -1423.079956 -305.965363
-878.919617 -1387.389893 -282.238342
-892.236633 -1394.559937 -184.414337
-881.097595 -1484.049927 -179.781342
-878.850586 -1520.639893 -230.657333
-884.986633 -1520.409912 -225.729340
-875.270630 -1516.979980 -211.978348
-879.762634 -1511.889893 -261.863342
-874.083618 -1511.719971 -262.157349
-882.052612 -1517.599976 -249.895340
-875.912598 -1453.129883 -285.792358
-880.934631 -1487.639893 -282.389343
-890.845581 -1397.249878 -207.324341
-886.012634 -1410.599976 -216.364334
-888.684631 -1509.789917 -289.062347
-891.639587 -1511.469971 -283.648346
-882.203613 -1523.079956 -218.923340
-880.568604 -1524.029907 -204.314346
-894.665588 -1457.529907 -165.563339
-888.120605 -1439.429932 -339.046356
-887.672607 -1367.559937 -282.544342
-885.178589 -1408.699951 -137.339340
-884.892578 -1430.559937 -127.115341
-885.059631 -1574.839966 -245.390335
-888.000610 -1574.219971 -250.501328
-883.283630 -1571.139893 -263.494354
-882.359619 -1551.339966 -300.940369
-884.786621 -1460.609863 -341.991364
-873.532593 -1360.449951 -285.104370
-873.532593 -1631.119873 -223.521347
-873.532593 -1368.699951 -95.167343
-873.532593 -1559.539917 -106.199341
-873.532593 -1581.289917 -112.819336
-873.532593 -1627.159912 -195.548340
-873.532593 -1613.089966 -300.424347
-873.532593 -1383.399902 -372.592346
-873.532593 -1541.929932 -116.131348
-873.532593 -1606.419922 -272.127350
-873.532593 -1579.879883 -335.095367
-873.532593 -1416.379883 -124.119339
-873.532593 -1356.669922 -184.417343
-873.532593 -1328.299927 -200.387344
-873.532593 -1335.009888 -158.815338
-873.532593 -1344.999878 -187.623337
-873.532593 -1370.989868 -102.911339
-873.532593 -1334.399902 -136.127335
-873.532593 -1355.639893 -142.759338
-873.532593 -1358.839966 -170.407333
-873.532593 -1347.169922 -171.503342
-873.532593 -1335.459961 -231.991348
-873.532593 -1335.639893 -243.143326
-873.532593 -1348.949951 -120.611343
-873.532593 -1346.679932 -115.783340
-873.532593 -1406.399902 -86.603340
-873.532593 -1327.109863 -298.737366
-873.532593 -1415.309937 -97.155342
-873.532593 -1423.729980 -105.459343
-873.532593 -1441.239868 -88.315338
-873.532593 -1416.189941 -75.811539
-873.532593 -1434.749878 -81.163338
-873.532593 -1466.899902 -94.019341
-873.532593 -1347.779907 -322.506348
-873.532593 -1479.919922 -87.803337
-873.532593 -1469.959961 -101.883339
-873.532593 -1394.469971 -361.131348
-873.532593 -1408.239868 -371.343353
-873.532593 -1498.649902 -105.475342
-873.532593 -1418.989868 -346.902344
-873.532593 -1425.449951 -352.875366
-873.532593 -1468.739868 -376.788361
-873.532593 -1578.319946 -121.279343
-873.532593 -1475.119873 -383.072357
-873.532593 -1518.799927 -347.946350
-873.532593 -1481.179932 -387.794342
-873.532593 -1505.839966 -385.029358
-873.532593 -1516.199951 -123.591339
-873.532593 -1530.479980 -120.119339
-873.532593 -1535.839966 -127.423340
-873.532593 -1520.279907 -372.453369
-873.532593 -1519.309937 -367.044342
-873.532593 -1537.039917 -328.382355
-873.532593 -1551.529907 -335.197357
-873.532593 -1497.659912 -347.197357
-873.532593 -1528.139893 -363.074341
-873.532593 -1591.869873 -258.815369
-873.532593 -1596.439941 -214.694336
-873.532593 -1603.679932 -229.811340
-873.532593 -1615.779907 -240.628342
-873.532593 -1624.469971 -265.041351
-873.532593 -1601.279907 -315.358368
-873.532593 -1570.819946 -323.090363
-881.518616 -1477.499878 -341.421356
-877.149597 -1473.819946 -341.871368
-873.631592 -1566.549927 -187.898346
-876.821594 -1417.369873 -132.575348
-880.517578 -1358.909912 -203.158340
-875.470581 -1355.419922 -239.322342
-873.532593 -1485.319946 -150.423340
-873.532593 -1489.909912 -155.579346
-873.532593 -1497.009888 -166.871338
-873.532593 -1401.809937 -151.639343
-873.532593 -1398.799927 -167.959335
-873.532593 -1408.609863 -164.963333
-873.532593 -1392.739868 -220.818344
-873.532593 -1364.519897 -217.404343
-873.532593 -1370.199951 -221.158340
-873.532593 -1367.029907 -230.024338
-873.532593 -1362.129883 -230.142334
-873.532593 -1364.829956 -232.260345
-873.532593 -1388.539917 -266.948364
-873.532593 -1430.679932 -307.688354
-873.532593 -1447.649902 -309.580353
-873.532593 -1444.959961 -319.260345
-873.532593 -1491.859863 -300.550354
-873.532593 -1479.439941 -294.642365
-873.532593 -1465.979980 -299.150360
-873.532593 -1463.809937 -298.567352
-873.532593 -1537.409912 -304.458344
-873.532593 -1520.659912 -250.274338
-873.532593 -1568.439941 -238.732346
-873.532593 -1508.439941 -165.607346
-873.532593 -1416.019897 -205.820343
-873.532593 -1521.869873 -192.913345
-873.532593 -1522.249878 -225.452347
-873.532593 -1517.439941 -295.230347
-873.532593 -1507.669922 -274.285370
-873.532593 -1412.229980 -274.194366
-873.532593 -1395.279907 -261.075348
-873.532593 -1439.029907 -162.267334
-875.520630 -1396.449951 -318.005371
-870.774597 -1324.139893 -322.962341
-869.714600 -1331.109863 -333.026367
-869.260620 -1392.679932 -383.557343
-871.636597 -1398.899902 -386.263367
-872.812622 -1416.519897 -392.688354
-873.389587 -1534.329956 -385.199341
-872.854614 -1583.199951 -351.907349
-873.374634 -1493.549927 -65.907539
-868.986633 -1617.009888 -182.974335
-872.388611 -1579.569946 -319.054352
-873.023621 -1328.819946 -291.882355
-870.291626 -1490.909912 -339.206360
-871.310608 -1417.019897 -330.948364
-868.934631 -1617.059937 -293.807343
-868.934631 -1603.959961 -309.172363
-868.934631 -1308.009888 -174.897339
-868.934631 -1312.779907 -218.252335
-868.934631 -1347.059937 -131.935333
-868.934631 -1345.789917 -153.115341
-868.934631 -1348.139893 -157.899338
-868.934631 -1587.189941 -165.335342
-868.934631 -1523.479980 -382.782349
-868.934631 -1518.389893 -380.085358
-868.934631 -1551.249878 -342.791351
-868.934631 -1379.179932 -349.121368
-868.934631 -1359.109863 -194.925339
-868.934631 -1365.979980 -168.155334
-868.934631 -1529.089966 -125.299347
-868.934631 -1533.189941 -142.707336
-868.934631 -1568.819946 -191.635345
-868.934631 -1574.919922 -214.866348
-868.934631 -1576.489868 -243.352341
-868.934631 -1323.559937 -194.645340
-868.934631 -1344.249878 -156.231339
-868.934631 -1336.549927 -165.915344
-868.934631 -1337.279907 -157.347336
-868.934631 -1336.419922 -136.107346
-868.934631 -1354.299927 -116.215347
-868.934631 -1305.019897 -248.294327
-868.934631 -1344.719971 -199.026337
-868.934631 -1355.349976 -164.859344
-868.934631 -1328.799927 -244.126328
-868.934631 -1342.409912 -235.277344
-868.934631 -1345.319946 -232.541336
-868.934631 -1359.829956 -161.555344
-868.934631 -1369.009888 -163.803345
-868.934631 -1314.599976 -303.152344
-868.934631 -1399.719971 -95.643341
-868.934631 -1345.389893 -279.777344
-868.934631 -1361.459961 -287.210358
-868.934631 -1404.769897 -129.027344
-868.934631 -1419.469971 -79.979340
-868.934631 -1414.699951 -87.575340
-868.934631 -1460.629883 -114.311340
-868.934631 -1425.649902 -370.377350
-868.934631 -1427.459961 -367.600342
-868.934631 -1425.119873 -363.926361
-868.934631 -1519.659912 -108.583344
-868.934631 -1489.659912 -94.151344
-868.934631 -1451.819946 -376.106354
-868.934631 -1462.349976 -364.700348
-868.934631 -1351.959961 -316.822357
-868.934631 -1373.509888 -326.364349
-868.934631 -1534.139893 -134.215347
-868.934631 -1521.559937 -389.746368
-868.934631 -1527.899902 -354.621368
-868.934631 -1577.879883 -189.189346
-868.934631 -1604.019897 -147.275345
-868.934631 -1534.789917 -367.653351
-868.934631 -1505.379883 -352.321350
-868.934631 -1541.489868 -363.801361
-868.934631 -1580.179932 -205.071335
-868.934631 -1606.109863 -143.943344
-868.934631 -1607.309937 -144.075348
-868.934631 -1617.829956 -183.496338
-868.934631 -1563.979980 -351.872345
-868.934631 -1578.559937 -323.823364
-868.934631 -1590.119873 -230.851334
-868.934631 -1603.779907 -221.704346
-868.934631 -1585.819946 -341.737366
-868.934631 -1601.279907 -306.526367
-868.934631 -1630.069946 -257.059357
-987.480591 -1510.239868 -290.769348
-952.990601 -1459.419922 -234.438339
-952.990601 -1460.559937 -244.594345
-952.990601 -1476.579956 -223.282333
-952.990601 -1473.399902 -217.245346
-952.990601 -1463.089966 -210.631348
-992.519592 -1417.609863 -286.299347
-968.408630 -1637.369873 -401.526367
-968.408630 -1658.179932 -372.924347
-968.408630 -1680.509888 -340.480347
-1003.970581 -1461.539917 -227.642334
-1003.970581 -1444.519897 -235.009338
-1003.970581 -1463.479980 -254.410355
-1003.970581 -1464.679932 -254.644333
-968.408630 -1502.539917 3.964457
-918.444580 -1453.709961 -213.412338
-922.532593 -1458.359863 -211.149338
-949.832581 -1464.599976 -209.964340
-914.001587 -1469.289917 -210.305344
-921.633606 -1475.979980 -212.675339
-920.053589 -1472.079956 -252.579330
-929.844604 -1466.889893 -253.580338
-927.710632 -1459.339966 -252.760330
-924.900635 -1458.109863 -252.352341
-940.206604 -1444.509888 -238.002335
-993.945618 -1415.149902 -286.496368
-970.986633 -1537.769897 -459.904358
-1003.410583 -1489.179932 -236.846329
-1000.220581 -1475.699951 -203.605347
-1000.430603 -1470.649902 -202.624344
-1002.360596 -1458.849976 -206.500336
-970.140625 -1704.939941 -268.400360
-969.615601 -1704.779907 -230.087341
-970.818604 -1355.499878 -19.495543
-902.322632 -1460.729980 -264.146362
-983.125610 -1460.639893 -264.604370
-927.340637 -1467.689941 -269.591370
-912.018616 -1460.649902 -266.092346
-953.868591 -1470.229980 -198.917343
-996.840637 -1461.919922 -201.643341
-995.646606 -1461.059937 -200.376343
-899.231628 -1450.749878 -252.734329
-899.302612 -1440.619873 -237.208328
-898.367615 -1438.219971 -233.457336
-992.671631 -1421.619873 -299.764343
-992.883606 -1515.489868 -295.570343
-986.218628 -1472.079956 -198.450348
-993.395630 -1492.739868 -211.529343
-997.910583 -1431.779907 -226.981339
-985.669617 -1436.109863 -214.544342
-971.641602 -1429.339966 7.412457
-990.931580 -1477.309937 -156.183334
-897.932617 -1494.319946 -256.434357
-897.932617 -1452.779907 -261.888367
-897.932617 -1508.559937 -224.785339
-897.932617 -1426.009888 -233.608337
-980.567627 -1437.729980 -293.748352
-978.220581 -1494.259888 -295.462341
-970.784607 -1639.109863 -405.236359
-933.412598 -1480.789917 -206.834335
-902.381592 -1482.559937 -208.790344
-939.340637 -1489.929932 -205.185333
-927.274597 -1482.709961 -200.509338
-925.609619 -1480.499878 -203.271347
-968.415588 -1492.479980 -221.105347
-956.935608 -1496.789917 -216.634338
-918.840637 -1501.939941 -220.117340
-962.647583 -1501.269897 -218.697342
-924.918579 -1498.339966 -226.172348
-899.114624 -1495.699951 -226.009338
-952.209595 -1493.049927 -239.856339
-962.588623 -1492.459961 -242.000351
-904.386597 -1494.789917 -246.296341
-978.501587 -1499.579956 -246.423355
-948.914612 -1484.379883 -254.132339
-934.939636 -1481.199951 -256.104370
-975.269592 -1480.319946 -259.455353
-931.370605 -1449.619873 -256.052368
-967.753601 -1441.579956 -256.420349
-933.713623 -1442.419922 -255.398331
-926.530579 -1430.969971 -246.256332
-909.023621 -1430.669922 -238.284348
-968.830627 -1434.569946 -216.711334
-984.848633 -1436.099976 -217.336334
-904.775635 -1437.709961 -218.963333
-917.541626 -1438.189941 -220.101334
-936.297607 -1432.699951 -226.198334
-954.395630 -1429.579956 -218.702347
-963.470581 -1429.419922 -218.929337
-946.294617 -1428.899902 -220.130341
-936.538635 -1428.929932 -222.897339
-956.623596 -1430.199951 -224.955338
-952.679626 -1445.879883 -209.531342
-910.540588 -1450.559937 -204.852341
-974.910583 -1448.689941 -200.862335
-920.515625 -1440.969971 -203.793335
-901.472595 -1442.699951 -200.908340
-971.153625 -1229.629883 -231.342346
-981.180603 -1473.909912 -175.011337
-984.490601 -1458.049927 -175.760345
-985.435608 -1535.219971 -223.951340
-980.773621 -1543.739868 -214.694336
-979.693604 -1527.889893 -196.852341
-990.219604 -1519.949951 -201.052338
-905.813599 -1474.179932 -177.771347
-903.698608 -1411.569946 -225.304337
-903.862610 -1494.499878 -277.750366
-900.209595 -1513.709961 -251.475327
-899.796631 -1517.039917 -233.818344
-898.197632 -1446.239868 -187.264343
-897.995605 -1463.419922 -279.142365
-978.782593 -1501.989868 -228.382339
-969.331604 -1267.659912 -94.507339
-969.304626 -1676.799927 -126.895340
-969.526611 -1674.569946 -121.963333
-977.782593 -1453.819946 -172.971344
-967.506592 -1429.239868 -452.876343
-967.189636 -1402.059937 -448.331360
-965.716614 -1499.659912 -452.047363
-907.193604 -1513.459961 -205.763336
-912.627625 -1510.319946 -263.061371
-911.220581 -1414.079956 -212.818344
-906.383606 -1440.029907 -183.364334
-907.062622 -1484.379883 -180.462341
-916.310608 -1452.359863 -284.919342
-916.868591 -1429.069946 -272.634369
-917.752625 -1416.959961 -257.258362
-923.360596 -1410.659912 -232.127335
-968.375610 -1289.259888 -87.667343
-967.407593 -1450.839966 -11.595543
-965.534607 -1661.969971 -125.287338
-965.738586 -1657.399902 -115.595337
-968.967590 -1228.659912 -291.754364
-973.090637 -1700.539917 -293.056366
-985.929626 -1678.449951 -290.024353
-982.252625 -1437.869873 -297.115356
-983.492615 -1409.779907 -282.875366
-980.959595 -1491.349976 -294.685364
-983.272583 -1519.339966 -278.662354
-988.618591 -1521.309937 -289.806366
-975.166626 -1324.219971 -407.162354
-971.013611 -1323.309937 -407.928345
-968.408630 -1236.079956 -330.878357
-968.408630 -1312.889893 -408.100342
-968.408630 -1253.719971 -330.172363
-968.408630 -1282.889893 -397.330353
-970.393616 -1244.549927 -317.783356
-974.343628 -1251.319946 -313.797363
-976.352600 -1248.259888 -315.456360
-969.337585 -1454.089966 -451.785370
-968.408630 -1358.669922 -431.466370
-968.408630 -1382.789917 -444.202362
-968.408630 -1437.719971 -467.198364
-968.408630 -1408.159912 -457.108368
-968.408630 -1441.759888 -462.263367
-968.408630 -1353.579956 -451.716370
-968.408630 -1412.619873 -466.238342
-968.408630 -1365.489868 -460.037354
-980.513611 -1341.739868 -421.298370
-979.273621 -1339.819946 -425.200348
-968.408630 -1487.499878 -455.334351
-968.408630 -1569.209961 -447.439362
-971.682617 -1477.779907 -463.782349
-978.165588 -1676.519897 -312.265350
-969.120605 -1695.409912 -324.054352
-968.408630 -1667.459961 -378.627350
-975.678589 -1602.779907 -403.330353
-980.297607 -1512.099976 -242.851334
-978.873596 -1452.519897 -190.726334
-971.931580 -1695.949951 -171.135345
-975.710632 -1682.759888 -172.939346
-968.576599 -1684.149902 -174.976334
-968.408630 -1708.659912 -203.949341
-968.408630 -1697.329956 -236.154343
-968.408630 -1220.679932 -283.508362
-968.408630 -1229.169922 -213.682343
-968.408630 -1219.019897 -261.717346
-968.408630 -1226.269897 -245.966354
-970.176636 -1250.649902 -173.712341
-971.217590 -1246.359863 -147.115341
-968.408630 -1239.379883 -126.731339
-968.408630 -1262.619873 -82.775337
-968.408630 -1287.999878 -59.359543
-968.408630 -1245.979980 -112.871338
-968.408630 -1299.919922 -64.731544
-968.408630 -1270.689941 -96.795341
-968.408630 -1263.589966 -103.687340
-978.832581 -1346.529907 -51.647537
-968.408630 -1444.619873 14.376477
-968.408630 -1438.959961 13.664437
-968.408630 -1390.299927 5.712458
-973.784607 -1479.339966 8.204457
-968.823608 -1480.869873 7.228457
-968.408630 -1542.669922 6.284457
-968.408630 -1541.409912 -8.491543
-968.408630 -1547.039917 -18.667543
-968.513611 -1592.359863 -29.867544
-968.408630 -1633.599976 -50.343544
-968.408630 -1621.409912 -51.783539
-968.408630 -1649.729980 -85.719337
-968.408630 -1646.249878 -65.439537
-968.408630 -1667.949951 -102.219337
-968.408630 -1658.829956 -107.227341
-981.044617 -1673.509888 -152.915344
-983.117615 -1480.499878 -169.487335
-978.608582 -1540.759888 -222.918335
-987.703613 -1386.349976 -203.406342
-995.477600 -1388.539917 -200.154343
-985.569580 -1392.839966 -196.664337
-992.757629 -1398.389893 -194.823334
-994.818604 -1278.559937 -285.184357
-982.074585 -1265.179932 -288.131348
-987.808594 -1294.929932 -280.940369
-1001.390625 -1343.129883 -264.563354
-990.890625 -1377.779907 -245.993332
-981.910583 -1377.399902 -246.687332
-970.293579 -1370.459961 -252.446335
-960.364624 -1431.239868 -281.324341
-965.910583 -1420.869873 -280.224365
-967.566589 -1510.179932 -293.409363
-949.640625 -1511.269897 -281.301361
-955.398621 -1510.529907 -280.605347
-974.876587 -1554.189941 -247.800339
-970.362610 -1552.139893 -243.426346
-993.762634 -1568.589966 -256.228363
-978.875610 -1646.769897 -283.815369
-997.810608 -1645.919922 -283.612366
-977.895630 -1634.269897 -280.484344
-1002.650635 -1625.109863 -277.798370
-1000.060608 -1373.469971 -271.526367
-983.046631 -1333.099976 -280.950348
-986.521606 -1273.619873 -302.456360
-975.394592 -1288.779907 -296.076355
-990.706604 -1339.869873 -391.405365
-984.676636 -1371.919922 -351.024353
-991.076599 -1391.639893 -320.398346
-965.364624 -1402.299927 -292.681366
-970.187622 -1402.869873 -298.902344
-969.432617 -1402.679932 -300.032349
-993.686584 -1405.179932 -327.980347
-985.188599 -1385.309937 -351.824341
-988.790588 -1392.409912 -342.922363
-995.760620 -1397.579956 -336.724365
-984.821594 -1358.819946 -389.946350
-962.992615 -1420.269897 -451.049347
-973.236633 -1457.959961 -431.312347
-980.565613 -1459.559937 -406.702362
-997.300598 -1459.709961 -376.727356
-994.550598 -1457.239868 -341.148346
-964.995605 -1455.549927 -326.916351
-966.756592 -1480.819946 -318.070343
-984.071594 -1471.999878 -420.105347
-987.614624 -1472.839966 -430.946350
-999.200623 -1470.969971 -386.195343
-991.577637 -1573.239868 -391.896362
-972.556580 -1578.479980 -400.672363
-1002.030579 -1542.469971 -347.913361
-1000.520630 -1538.659912 -343.204346
-994.277588 -1536.899902 -341.030365
-978.396606 -1521.249878 -323.101349
-979.269592 -1500.259888 -311.225342
-989.725586 -1496.319946 -312.494354
-989.037598 -1529.029907 -291.545349
-983.613586 -1533.079956 -309.670349
-995.635620 -1536.109863 -315.083344
-999.340637 -1535.819946 -314.591370
-993.569580 -1557.709961 -349.277344
-987.801636 -1542.969971 -326.676361
-981.239624 -1589.959961 -390.249359
-981.276611 -1579.519897 -378.001343
-981.006592 -1566.859863 -361.918365
-994.590637 -1573.719971 -370.822357
-976.127625 -1649.039917 -298.938354
-994.684631 -1651.269897 -299.870361
-996.180603 -1621.929932 -288.558350
-982.328613 -1625.749878 -289.874359
-988.393616 -1595.839966 -280.408356
-1003.400635 -1595.579956 -280.336365
-986.771606 -1561.479980 -272.321350
-980.508606 -1574.419922 -275.018341
-959.673584 -1248.019897 -187.956345
-975.340637 -1665.809937 -175.457336
-995.130615 -1644.729980 -180.335342
-994.146606 -1592.359863 -197.208344
-1000.360596 -1606.709961 -191.850342
-975.113586 -1566.379883 -208.365341
-999.640625 -1562.429932 -210.234344
-982.115601 -1551.809937 -221.986343
-991.001587 -1557.099976 -212.893341
-996.210632 -1560.599976 -211.084335
-964.364624 -1537.789917 -213.428345
-968.277588 -1526.339966 -203.660339
-958.749634 -1526.589966 -218.005341
-968.592590 -1529.879883 -218.817337
-955.282593 -1471.459961 -169.047348
-953.410583 -1404.589966 -217.813339
-946.697632 -1407.229980 -206.089340
-972.632629 -1392.759888 -212.242340
-938.475586 -1524.689941 -223.614334
-924.707581 -1481.179932 -179.317337
-926.062622 -1473.159912 -177.413345
-940.110596 -1503.039917 -183.519348
-941.088623 -1496.769897 -178.182343
-937.200623 -1521.739868 -214.218338
-941.934631 -1523.759888 -255.391342
-938.428589 -1497.049927 -282.516357
-934.267578 -1470.489868 -288.736359
-925.971619 -1427.539917 -271.553345
-929.616638 -1417.699951 -260.064362
-936.335632 -1421.619873 -270.216370
-933.266602 -1412.109863 -251.238327
-941.974609 -1407.539917 -256.580353
-940.872620 -1451.239868 -171.567337
-975.882629 -1379.139893 -234.594345
-993.757629 -1377.989868 -218.054337
-996.670593 -1331.339966 -194.487335
-999.970581 -1336.049927 -196.258347
-984.529602 -1353.839966 -203.561340
-996.150635 -1285.749878 -180.214340
-997.380615 -1314.719971 -188.657333
-960.893616 -1401.719971 -172.335342
-991.407593 -1369.999878 -109.891342
-992.573608 -1365.509888 -103.711342
-989.655579 -1353.019897 -87.639343
-997.890625 -1349.289917 -83.127342
-986.291626 -1334.059937 -65.819542
-958.016602 -1283.119873 -99.743340
-961.885620 -1265.299927 -134.967346
-985.370605 -1284.389893 -165.775345
-987.908630 -1272.139893 -160.483337
-981.966614 -1309.819946 -175.374344
-1003.120605 -1333.899902 -182.885345
-983.444580 -1340.679932 -184.743347
-980.408630 -1365.619873 -190.547348
-983.227600 -1354.879883 -188.239334
-991.713623 -1347.549927 -186.498337
-969.489624 -1390.299927 -188.351334
-996.460632 -1399.179932 -176.201340
-964.674622 -1452.939941 -142.819336
-1000.760620 -1455.969971 -132.907333
-1000.540588 -1457.079956 -123.991348
-987.614624 -1458.009888 -114.851334
-983.859619 -1459.589966 -90.511337
-989.577637 -1459.719971 -86.643341
-984.459595 -1457.709961 -29.387541
-990.858582 -1458.859863 -43.355545
-990.038635 -1459.909912 -71.027542
-1001.010620 -1459.839966 -66.767540
-1001.270630 -1373.659912 -96.039337
-986.759583 -1409.199951 -140.015335
-991.481628 -1403.839966 -134.107346
-997.140625 -1423.959961 -152.651337
-990.961609 -1444.219971 -147.975342
-989.374634 -1439.809937 -149.407333
-959.016602 -1438.409912 -149.863342
-983.321594 -1522.359863 -139.251343
-980.156616 -1529.809937 -130.959335
-1002.100586 -1531.729980 -128.695343
-978.272583 -1582.259888 -56.343544
-987.950623 -1575.829956 -67.419540
-987.462585 -1572.339966 -73.187538
-999.490601 -1555.049927 -99.043343
-990.835632 -1471.709961 -99.855339
-1000.390625 -1470.979980 -80.295341
-999.360596 -1470.949951 -71.707542
-980.164612 -1471.079956 -62.759544
-998.170593 -1477.829956 -142.695343
-966.753601 -1477.339966 -142.067337
-981.575623 -1500.089966 -152.347336
-981.473633 -1569.929932 -189.569336
-983.350586 -1593.149902 -183.951340
-999.450623 -1576.679932 -188.076340
-990.475586 -1616.089966 -177.046341
-1000.560608 -1628.319946 -172.815338
-962.828613 -1658.589966 -118.095337
-962.916626 -1643.299927 -94.339340
-961.635620 -1644.369873 -95.519341
-984.599609 -1563.779907 -105.839340
-994.248596 -1544.339966 -134.691345
-989.048584 -1528.879883 -171.719345
-958.704590 -1531.189941 -175.532333
-1002.020630 -1366.429932 -259.694366
-998.960632 -1376.339966 -249.422348
-998.790588 -1377.139893 -250.917343
-981.794617 -1496.499878 -271.983368
-968.018616 -1232.539917 -328.913361
-967.809631 -1252.019897 -366.813354
-1000.320618 -1292.389893 -291.062347
-998.650635 -1418.279907 -308.557343
-971.155579 -1478.279907 -478.961365
-1000.460632 -1475.099976 -327.376343
-1005.340637 -1462.329956 -386.119354
-1005.140625 -1466.439941 -387.975342
-977.334595 -1612.719971 -417.904358
-1006.080627 -1594.179932 -273.994354
-1003.640625 -1571.959961 -261.228363
-998.060608 -1521.259888 -299.654358
-997.640625 -1574.899902 -389.715363
-1000.860596 -1558.849976 -260.178345
-988.580627 -1527.099976 -249.201340
-993.466614 -1532.919922 -264.853363
-994.290588 -1537.499878 -259.995361
-996.460632 -1544.749878 -257.169342
-993.833618 -1478.299927 -306.861359
-981.317627 -1462.639893 -281.691345
-989.820618 -1458.829956 -298.298370
-970.193604 -1314.039917 -429.229370
-982.458618 -1326.759888 -412.987366
-989.708618 -1335.359863 -400.669342
-1001.890625 -1358.919922 -372.253357
-1004.550598 -1371.169922 -363.358368
-987.347595 -1408.089966 -253.621353
-989.862610 -1402.629883 -254.847336
-982.343628 -1465.739868 -460.154358
-987.790588 -1468.069946 -449.051361
-989.929626 -1470.659912 -444.332367
-1006.060608 -1464.489868 -371.299347
-1005.790588 -1467.919922 -361.963348
-969.518616 -1314.199951 -32.867546
-981.306580 -1244.539917 -166.943344
-1005.760620 -1341.819946 -194.028336
-979.860596 -1319.609863 -50.275543
-968.208618 -1251.769897 -98.151344
-974.299622 -1239.589966 -143.851334
-1002.020630 -1297.499878 -179.051346
-1002.210632 -1357.969971 -93.687340
-980.589600 -1338.819946 -37.971542
-1006.040588 -1383.689941 -116.523346
-1005.460632 -1390.509888 -132.939346
